# .PCD v0.7 - Point Cloud Data file format
VERSION 0.7
FIELDS x y z intensity
SIZE 4 4 4 4
TYPE F F F F
COUNT 1 1 1 1
WIDTH 767
HEIGHT 1
VIEWPOINT 0 0 0 1 0 0 0
POINTS 767
DATA ascii
0.09013497896686311 0.46869981612371503 -0.33862710794198303 1.0
0.2179919079547663 1.524470822267022 -0.7620963830668934 3.0
0.5201733459938243 3.9776077079881236 -1.6759018072448468 7.0
0.5555129781957725 4.263712438711957 -1.667692221139204 15.0
0.5963456385778341 4.5872481446700695 -1.6590239714122135 6.0
0.644806682051875 4.961324417769015 -1.6485354490342974 7.0
0.6911763260877208 5.330960802678831 -1.6218647458640107 16.0
0.7515008640144188 5.804258050893482 -1.6060008648708635 6.0
0.8214504099313524 6.349602120384798 -1.5834479173415805 5.0
0.9098772453338883 7.050843421484129 -1.5708384150695025 6.0
1.001096452232573 7.755664740243982 -1.527045428935723 6.0
1.0743588131247848 8.657005103104924 -1.4797615669056772 7.0
1.2105418484224915 9.762444186901629 -1.4226142678958682 12.0
1.3674933721146383 11.033224009795958 -1.3303094172678018 4.0
1.579245096614361 12.736458234685784 -1.2230755899831451 6.0
1.9029002045053134 15.391406660357715 -1.101209510352324 8.0
2.486061159146564 20.128334737831192 -0.9520555048323989 6.0
3.2097350942926326 25.97710635817977 -0.6024075681469667 6.0
0.0006958555309244782 -0.2636479646407407 -0.011839979447357598 4.0
7.9272208950257586 64.27334872712893 1.5511122383026306 26.0
8.29004083494362 67.03007741620995 3.2063299428930074 100.0
8.295495024358239 66.98775509702844 4.782844148799645 41.0
0.0013882260411625681 -0.26289413212648255 -0.01135812615754425 10.0
-0.0003244920288540407 -0.26301103226835265 -0.012414778758950841 9.0
0.001441327947178481 -0.26248355238582366 -0.011653425221928615 5.0
7.355752221288047 58.76617639648833 9.813281992105464 30.0
7.375331447724268 58.75445478508041 11.245156042377443 30.0
0.07013328918734502 0.29282639146618916 -0.3424009400514416 2.0
0.0712755597060491 0.2956838370934859 -0.32813342352470964 2.0
0.07936252323574151 0.3514301816619117 -0.34111574431397723 3.0
0.08687402898972865 0.41603423206587126 -0.3548920041162123 5.0
0.09669020027513521 0.4954103869790905 -0.3729232041086496 3.0
0.09808630417055678 0.49770278466650136 -0.3526456432237705 0.0
0.22936883137352873 1.524180629554406 -0.7617743089918373 3.0
0.5435039020983968 3.974978436821127 -1.6754032239739591 7.0
0.5824270596040657 4.262413916638711 -1.666974428934707 15.0
0.62430403203663 4.580299178111209 -1.6568577120219465 6.0
0.675601907278994 4.961066747744833 -1.6496258722841965 7.0
0.7246641490373611 5.334099456244063 -1.6240296171865782 17.0
0.7859629398403897 5.797921723904357 -1.6053445209232844 7.0
0.859379999989826 6.34771757010349 -1.584326889168989 5.0
0.9533836573551443 7.047858098738682 -1.572549210395863 6.0
1.0465788061029557 7.7525943739458265 -1.5274589276517239 7.0
1.1268269535828277 8.659120151166578 -1.4807390077483817 7.0
1.2662488661454563 9.74673166362858 -1.4202324250210288 12.0
1.4301479354885964 11.012327994792113 -1.3287585693965147 4.0
1.6522892953857655 12.725709537741228 -1.2227368153673075 6.0
1.9916381391116957 15.35634095986751 -1.0999778710185484 8.0
2.5959139158699274 20.044593862313775 -0.9499085502169957 6.0
3.360358129251302 25.966055744611136 -0.6045153266101374 6.0
-0.0004471193325640584 -0.2630279605248061 -0.010807485463736116 4.0
9.706296199428325e-06 -0.26302420461435017 -0.011834071129972302 10.0
9.348486940966815 72.19600891441334 3.456155465861457 51.0
8.690371935633225 66.98676113714278 4.786852639831979 41.0
0.0007070956135959399 -0.2633098055156687 -0.010492696410222279 10.0
0.0007494025758472014 -0.2621491985139802 -0.01221546470333101 9.0
-3.5353640399667444e-05 -0.26375302467405565 -0.01225542750505594 5.0
7.701011252682921 58.75740165617147 9.816931258244896 30.0
7.7279806875263235 58.80908834762667 11.26326828948685 31.0
0.07221365065643283 0.28704156201221764 -0.34028281128410653 2.0
0.07360944417114602 0.2919975195478529 -0.32533710465239435 2.0
0.08225618307059185 0.3497846272785058 -0.3402661171842371 3.0
0.09121689550339115 0.4139996348801484 -0.35431061128387675 3.0
0.10047582526656525 0.48677451320242726 -0.36858480024976514 3.0
0.0010617041703644768 -0.26241953424077075 -0.011740202093382395 0.0
0.2397007752323287 1.5236024572568692 -0.7620824153120175 3.0
0.5692196216821425 3.975599271923594 -1.6765418345377296 7.0
0.6085219019002934 4.254477552298666 -1.6656364628142095 15.0
0.6541490871895784 4.59200547185139 -1.6614575144297379 6.0
0.7069419995900216 4.9707081523728975 -1.6548958088139953 9.0
0.7566435879322209 5.32593455903615 -1.6232784452447662 15.0
0.822469157693189 5.803474715392744 -1.6088537575089978 7.0
0.8985378251875749 6.34516119814411 -1.58521746664519 5.0
0.9967929100836869 7.055219273171779 -1.5741182630128694 7.0
1.0925640163148491 7.742791434561473 -1.526625142665629 7.0
1.1805875652491908 8.64702704172227 -1.4803204365528848 6.0
1.3251894318822677 9.729272975501459 -1.4196033892744657 12.0
1.5002305535047058 11.015207825373318 -1.3309940560519276 5.0
1.7306098265514818 12.712202002081638 -1.2222137122197732 6.0
2.0782186629238697 15.31312249188993 -1.096404692523877 8.0
2.7048648216979143 19.946606686861927 -0.9449674515892236 4.0
3.5138482540201963 25.951915377774228 -0.6029837450294074 6.0
0.0013192248378399362 -0.26261271363173705 -0.012267909539382038 4.0
3.264709891746408e-05 -0.2629629876237462 -0.011939100554067958 10.0
0.00028754301079870917 -0.26285127308695744 -0.011533321052503532 9.0
9.0920382681547 66.96131290387078 4.787685660616532 42.0
-0.00031901013805606354 -0.26282974763728967 -0.0106823019060144 10.0
12.304862886400224 90.35351212961864 10.758851933962596 63.0
12.320758257823684 90.22927030083055 12.900604252852103 63.0
8.046767521554479 58.76585330974329 9.8270143272128 30.0
8.072640835285117 58.797823350998385 11.27113703693582 31.0
0.07706302895003873 0.28767276502854644 -0.34018722432876863 2.0
0.07851634793096213 0.29775750882394203 -0.3292055332022312 2.0
0.08587647544378416 0.35619607123198854 -0.3415337455097901 3.0
0.09267280821561369 0.4078166060983173 -0.3491913829686555 3.0
0.1073279028808194 0.49869246896061153 -0.373438074372149 2.0
0.0007083648813041019 -0.2631171942238922 -0.011073908571876906 0.0
0.2499669422699839 1.5265725764237876 -0.763550027238634 3.0
0.5934663366952829 3.9752406006765275 -1.67825386067089 6.0
0.6341444626713801 4.255719154501694 -1.6679575002136167 19.0
0.6835073013578116 4.594178150223096 -1.664761443783145 6.0
0.7364736199406599 4.959485830263202 -1.6518866337541815 7.0
0.78855181734217 5.31742736927341 -1.6227094368904154 17.0
0.8591319568680189 5.809140329433274 -1.61050000533979 6.0
0.9379699023438648 6.345032660942098 -1.5875204237616147 6.0
1.039198863567082 7.052884005626894 -1.5748797847445009 6.0
1.1420052541771786 7.744655349471159 -1.5278209019018691 7.0
1.2291458221119063 8.6391675176488 -1.4805506504225743 6.0
1.3805651346043657 9.71358540282091 -1.4172661378807598 12.0
1.5632923334466569 11.013632431286766 -1.3309442003952257 5.0
1.8014116756939806 12.701668562503434 -1.2214496210037156 5.0
2.164187792552224 15.270082293257705 -1.0942877603436303 6.0
2.8048429408652216 19.83891017469249 -0.9402736740549803 4.0
3.671815896427932 25.996015962394722 -0.6057296520695565 6.0
-0.0003762439354615596 -0.2616136564460779 -0.011893026339598725 4.0
0.00012087160421342185 -0.2616949014329832 -0.012208426844004758 10.0
7.218734379258461 51.021878637002644 2.445933161335055 22.0
9.486021669851109 66.96248133996744 4.792174894944493 42.0
0.001239965613728579 -0.2625400961903289 -0.012291843380934031 10.0
0.00032180644754105673 -0.26314005566219195 -0.011367573983147779 9.0
0.0005226250997478524 -0.2621773267466548 -0.010914927504317976 5.0
8.401549471796658 58.74654281678144 9.831910420765263 30.0
0.00022451770328499364 -0.26255453719293625 -0.011628734892618 30.0
0.07767062536651767 0.28042260679228365 -0.33498226738390524 2.0
0.08117059712585713 0.2980921283450161 -0.3273366434801732 2.0
0.08970024642876989 0.3532750914892274 -0.34223635486983633 3.0
0.09820718664093449 0.4153406153783965 -0.35358828650707014 3.0
0.1114541851020563 0.5071833006730683 -0.37873306544803975 1.0
0.000495680621989632 -0.26123797437702306 -0.011305852494505126 0.0
0.2616077771360138 1.5241875163067475 -0.7644121973994129 3.0
0.6188119442651009 3.9782285192666347 -1.680622793238806 6.0
0.6609816051814721 4.255607471655383 -1.6687322923182593 15.0
0.7124725152650205 4.600248536519523 -1.666684944832661 5.0
0.7658112872869788 4.944810924074223 -1.6493929717754932 6.0
0.8201833722465307 5.309818332330485 -1.6221156040855536 18.0
0.8959904193780054 5.80967521648945 -1.612891733563554 7.0
0.9761458856354562 6.34572499577827 -1.588749465425482 5.0
1.0835604777344563 7.050125952273198 -1.5770269751353247 6.0
1.1861357521930784 7.729328668242377 -1.526908637999585 7.0
1.2830551394112664 8.638894716432151 -1.4803716641716158 5.0
1.4378818156621986 9.69683723021761 -1.4162933478769737 17.0
1.6307027064822526 11.011618169997382 -1.3325369571838939 6.0
1.8769059470716474 12.681988293343581 -1.2216100652241055 5.0
2.253349528330661 15.256803655924408 -1.0942774892431697 6.0
2.9112980113497566 19.731780819863793 -0.9375398161562558 2.0
3.824629018230461 25.9418992562624 -0.6051715050590191 6.0
0.0008993373362331423 -0.2625810087571324 -0.011693699054781194 4.0
0.000849507435522549 -0.2619914816675764 -0.01132907626989863 10.0
7.560148495325579 51.2347898526539 2.458067214708042 22.0
0.0004423397040821893 -0.26161637128490256 -0.01116607426698469 9.0
0.0007907676852756515 -0.2625324393250246 -0.011969902862187028 10.0
0.0006637274704602775 -0.2622359581561316 -0.011319716144354472 9.0
0.0014007574996283227 -0.2609990531223077 -0.011679633594489558 5.0
8.74904288861793 58.75556981914762 9.841223865772623 31.0
0.0007322623518311601 -0.2621504182417604 -0.01168990068124333 30.0
0.08322435327963104 0.2903192744350814 -0.3406216614984078 2.0
0.085132502551662 0.2949459517074227 -0.32781909390389524 2.0
0.0926716781977921 0.3465093379143567 -0.33679144666763516 3.0
0.10094451702564007 0.40603747538923407 -0.350672303699045 3.0
0.11833347989571065 0.5144783110531193 -0.3822658639813033 0.0
0.0005483539284424923 -0.2621985731283069 -0.010796177048558222 0.0
0.2701601316554117 1.5228236350210584 -0.7633973294683347 3.0
0.6443555854494445 3.971270440515909 -1.6781250758389634 5.0
0.6864212756717172 4.2527897863612045 -1.6700533075542698 15.0
0.7405112762731612 4.598318180558171 -1.6684236922527131 5.0
0.7940216408846783 4.930789664877571 -1.6458755174242485 6.0
0.8519513991106622 5.310709562855887 -1.6223498515563493 17.0
0.9314341287850566 5.814170009121066 -1.6142074324862703 7.0
1.0138174923099268 6.336745359093764 -1.5869607410707969 5.0
1.1242428010028576 7.04020211611673 -1.5754403490125453 8.0
1.2313114892628032 7.715109870081872 -1.5251110863590986 7.0
1.3331871507635118 8.626983742459029 -1.4810018193669237 5.0
1.4923921013851909 9.667350154283092 -1.4135666766132196 13.0
1.695935565002277 11.005091956709526 -1.3316396954723024 6.0
1.951110388139806 12.67045457421877 -1.2213291696475395 5.0
2.3391458758389527 15.223196673614556 -1.0927989533456073 8.0
3.0144858069169507 19.64272481549041 -0.9334038078221661 4.0
3.975962860367247 25.928367161226454 -0.6053499711844903 3.0
0.0008675019028172399 -0.26063486576595774 -0.011748867299203686 4.0
0.00030264912668114376 -0.26217482458976604 -0.012337929751295183 10.0
7.936000852253725 51.701117967273404 2.483147887108227 22.0
11.020308742734827 71.82386032181405 5.148221511299721 51.0
11.04715889516837 71.81990367366636 6.8512731964381 51.0
-0.00040721277716846153 -0.2622645557988518 -0.011066325103175742 9.0
-0.0002336056912180149 -0.2623830167033743 -0.012106566433202041 5.0
9.095994296769122 58.74950918667946 9.848435218300601 31.0
-0.00039618242169675957 -0.26054106595403714 -0.011868559139465168 30.0
0.0865938077503999 0.2934624025495518 -0.34347089636010664 2.0
0.08678259127916631 0.29311961381134216 -0.32638321273520093 2.0
0.09795497100551169 0.3576486550053854 -0.34380394918543455 3.0
0.10649534651120852 0.4155738721885735 -0.35382246577399556 3.0
0.12365963610521175 0.5231861308996995 -0.3870076903183832 0.0
6.432784507448064e-05 -0.26208631661994186 -0.011502084540442202 0.0
0.28015229967700045 1.5183275928226538 -0.762549415292519 3.0
0.6677108211572527 3.9728396666962484 -1.681441470737188 5.0
0.7142746918084099 4.254754350291403 -1.6719625076359472 22.0
0.7721113750562881 4.609557186433571 -1.6729392784728345 6.0
0.8218443975057809 4.9202338357025 -1.6438552854855495 6.0
0.8857557299442066 5.311361461390331 -1.6250557538527852 17.0
0.9672632393627493 5.813250924942277 -1.6158576451324198 7.0
1.0505843155773973 6.330243391964318 -1.586760065160708 4.0
1.1674669975808927 7.038291243306801 -1.5761460821208686 7.0
1.277213542013125 7.712103017985691 -1.5264687128325922 6.0
1.3830006466824725 8.612097055954184 -1.4784157050443751 6.0
1.5474085484792919 9.654656057211698 -1.4139480169166876 13.0
1.7606036889857997 10.98762310602862 -1.331118590940435 6.0
2.027938802737037 12.667393740701824 -1.2206334546995017 4.0
2.427364352855164 15.20101753280871 -1.093092254744885 8.0
3.120473142780913 19.572798337955035 -0.9314072944746816 4.0
4.132546621383462 25.943852948386386 -0.6056670094246805 3.0
0.00019534366082673844 -0.2602176517678556 -0.011817962753172696 4.0
7.360612770347839 46.25098239015219 1.119266769628476 17.0
10.97801769170618 68.95086463181542 3.3143475774600235 45.0
0.0003214586833080015 -0.26160646731837917 -0.01148055666048307 9.0
0.00028862377812384813 -0.262022179271299 -0.010939627991200233 10.0
0.0006374152786911903 -0.2604849639417296 -0.011368282685347656 9.0
-0.00047826903035702107 -0.260488231226127 -0.011506910142230532 5.0
9.443126248553947 58.740940291399234 9.854895301417908 31.0
0.00019607515874932075 -0.26023419148611754 -0.012289150243081573 30.0
0.08837656490589602 0.28532448249320813 -0.33964187890617625 2.0
0.09137659613323025 0.2966954921082631 -0.32916684484871683 2.0
0.09910842563240858 0.3464350431075906 -0.3377806752135858 3.0
0.1086152143414108 0.407240653785463 -0.3501122591980738 3.0
0.1255553455260791 0.5116826152120624 -0.3803360007322435 0.0
0.001011037877218852 -0.26022697771867215 -0.012131069844848104 0.0
0.2907778833744002 1.5213555248656654 -0.7633028657678558 3.0
0.6943214325567039 3.9786014954274886 -1.684062800334957 3.0
0.7436066064379768 4.267193302079078 -1.6772208930372188 16.0
0.800481355865753 4.615280935707082 -1.6762039792602832 6.0
0.8531302122786684 4.916618787511682 -1.6451614282279274 6.0
0.9176769810690311 5.3024156357637295 -1.622977028340664 18.0
1.003508488378387 5.808697873359408 -1.6165198717071938 7.0
1.0926891642581291 6.339053435905586 -1.5917459771516722 7.0
1.2100110876789607 7.028473271579239 -1.5759572599595013 6.0
1.3233362606511172 7.694128074606334 -1.5234938538555445 6.0
1.4345860594730528 8.604135641545227 -1.4801837733323215 5.0
1.604936888258601 9.640962214625132 -1.4131793068980605 11.0
1.8224345498285617 10.967916756921817 -1.3312520942990818 7.0
2.1021371899050907 12.65696622082487 -1.221858935537752 3.0
2.513744821704196 15.158625341845621 -1.0920340009435339 8.0
3.226945922632083 19.50854058168892 -0.9301593139232551 4.0
4.288101444007795 25.95108192037105 -0.6058006884331898 6.0
0.00013396182694121195 -0.2616368817124182 -0.010390221666977402 4.0
7.642719262440765 46.302114432733305 1.1229812738872398 17.0
0.0013649932192821125 -0.2607586027214107 -0.012064020074499977 9.0
0.001182290763621677 -0.26132483451482824 -0.010411885366463342 9.0
0.001073222424966007 -0.2603528081816507 -0.010613244417361684 10.0
0.00010916315068318209 -0.2601063635883418 -0.011763316575858504 9.0
0.00026456454671350293 -0.26111037833687806 -0.010679848611137775 5.0
9.804019854839877 58.74866865152915 9.866254213544831 31.0
0.0008657949954512221 -0.26057362752342206 -0.011848353601004526 30.0
0.09146970891395212 0.2846700632508579 -0.33892632402518397 2.0
0.09387481226214318 0.2926727506364534 -0.32493506693327945 2.0
0.10252285912123298 0.3428948698997486 -0.3354152126258172 3.0
0.11275640340663959 0.40923072764368634 -0.35186790367535437 3.0
0.1316285054748311 0.511766726275083 -0.38136795924532846 0.0
0.0008570394114902338 -0.2597116762212927 -0.011552046077987118 0.0
0.30242247409952305 1.520171061454613 -0.7645033158481097 3.0
0.7211843541021493 3.98223083408715 -1.6881733453898435 4.0
0.7695904000005883 4.262323843191939 -1.6758464481206046 15.0
0.8295198102685296 4.608301807005205 -1.6762181547095847 6.0
0.8828500618603179 4.909376031862666 -1.6434550547241413 6.0
0.9512314134500598 5.297905081188087 -1.6227705040791125 18.0
1.0369001191307718 5.791720810943533 -1.6129250683702303 7.0
1.1318846618302287 6.334565494186692 -1.5908337160361008 6.0
1.2515758214569817 7.018456642089549 -1.5748821580565495 7.0
1.3673604117072107 7.679685151592364 -1.5227857062023964 6.0
1.4843664814702662 8.582614268161441 -1.4781055892357968 6.0
1.6613935824846768 9.624594832135108 -1.4114811891338013 11.0
1.8884130037620421 10.951475160201893 -1.3300074757147065 7.0
2.1735330454874986 12.615346423544802 -1.2182750174890924 5.0
2.602240250040457 15.135958978350189 -1.0898589086277888 8.0
3.3372518701305993 19.446582269750014 -0.9275819007021238 4.0
4.4269499319506735 25.820457386560097 -0.6040114167831492 3.0
-0.00011641350444173274 -0.26113749364871064 -0.011540859493173112 4.0
7.916936130639409 46.2448975146548 1.122477216844592 17.0
8.0654940944741 47.015754654269124 2.2634226152927126 18.0
0.000439709907433639 -0.2609926931356122 -0.010977107667855222 9.0
0.0002575728572179008 -0.2599561406961395 -0.011844440693558552 10.0
12.25583782845586 71.1949776290957 8.526229800697637 51.0
11.233128215753302 65.15565647042501 9.370751549851292 81.0
10.15119750858795 58.72982032409114 9.873228177308595 31.0
10.17947177332799 58.77008650333522 11.324917289534634 31.0
0.09520057453224597 0.28435470725009226 -0.3392698453630484 2.0
0.09740839915628258 0.2958769290267101 -0.32796531757428365 2.0
0.10627473968343966 0.3461003607132965 -0.3373732824400121 3.0
0.1162841214918394 0.4069065845884232 -0.35118813700067897 3.0
0.1335108947182644 0.49692121800076755 -0.3742832367894706 0.0
0.0006604119585971191 -0.25938575691801424 -0.011918500498569098 0.0
0.31285524080405647 1.5213145246077187 -0.76551827160706 3.0
0.7447497291707162 3.970364957384471 -1.6838136452873653 3.0
0.7987303477145314 4.271850899606938 -1.681659800972277 16.0
0.8597351119634601 4.6106623058889395 -1.6788863751961696 6.0
0.9125719492958408 4.904917078949004 -1.643245171065301 6.0
0.9838053201537844 5.2952394869953485 -1.624500452549739 17.0
1.073302074907347 5.794665549023732 -1.6159566770479368 7.0
1.1694355001780496 6.331205616952324 -1.5914690436949406 7.0
1.2948128123808462 7.020750118217706 -1.5760767120587487 6.0
1.4143240712831169 7.672477924863848 -1.522737527585311 6.0
1.5344064790292706 8.571171701522248 -1.475799747015146 5.0
1.7171279398160684 9.607503356978333 -1.4110250006997682 13.0
1.9510189975984487 10.932978369968284 -1.3289536788352119 6.0
2.2442116989626615 12.586355496821197 -1.2174565218195632 5.0
2.68990350014499 15.111172343837982 -1.090201792553547 8.0
3.4420080595415072 19.372655680712946 -0.9242804427093576 3.0
4.542111285743617 25.602920373303277 -0.599342915635683 3.0
-0.00014990157629592128 -0.25994332931293174 -0.011996355244628084 4.0
8.189566631405697 46.22416748341768 1.1225948154929806 17.0
0.00025965765804473497 -0.25922104240921023 -0.012281160901312097 9.0
0.0013314208847507037 -0.26088237359744193 -0.012057188913292384 9.0
11.608543515398916 65.29414564897905 6.253899614348368 79.0
11.606834094364972 65.14604418320064 7.811144065001361 80.0
11.622155058549522 65.15816175664942 9.381305219497838 82.0
10.498858913559825 58.71425075732464 9.878826277039705 31.0
10.518918016477215 58.706439354664276 11.323195887412902 31.0
0.09664808951835847 0.2777521070495042 -0.33366007222926247 2.0
0.09927830674704093 0.2943967801413921 -0.32769293022219803 2.0
0.10999372903786277 0.34345590464745873 -0.3367621741954915 3.0
0.12084919006460623 0.4056038692056606 -0.34915963187368737 3.0
0.13950112672069834 0.5130411574785828 -0.3824413616093523 0.0
0.0009214369612529369 -0.25962494706096134 -0.0112569877651535 0.0
0.32319957670374805 1.5147859140975604 -0.7623727208081119 3.0
0.7685489793765669 3.968048906621718 -1.685119609876584 3.0
0.8242218224095564 4.273215016678162 -1.6851427253416804 16.0
0.887437955318862 4.605060300069016 -1.6780769651185052 8.0
0.9427099268137218 4.899911606063414 -1.6427680122698933 6.0
1.0159086772473227 5.289888965624862 -1.623399640823957 18.0
1.108187036188854 5.789575209485731 -1.6156285365106662 7.0
1.2092314677692595 6.329907106719643 -1.5930384675343259 6.0
1.3359802022227203 7.008240946662997 -1.575198598424532 9.0
1.4571059375408963 7.652482198862241 -1.5212650523106797 7.0
1.584965006276195 8.559131417952383 -1.4769774670227538 5.0
1.775460325787039 9.605857930819216 -1.4115149408653078 16.0
2.0150312274916837 10.913141782335336 -1.3277018134031136 8.0
2.31628400125718 12.554937467570594 -1.2163150383005834 7.0
2.7768001255186157 15.093260994617133 -1.0902724536848163 8.0
3.5463220956174677 19.305408105048812 -0.9220994169264662 3.0
4.669322359200783 25.45145933137066 -0.5964937496927277 3.0
-0.0004162239670253829 -0.26065129192319797 -0.010306991990138181 4.0
8.464302931173393 46.21021708070485 1.1236092700724938 17.0
8.462021312773121 46.11419687772824 2.224326447124724 54.0
10.660046462985372 58.09414881703549 4.1851393924563896 27.0
10.672917006563633 58.05346437689429 5.567665341148973 27.0
10.68588086176481 58.00503141166466 6.963838605921761 27.0
10.686188311044656 57.94025329584128 8.354174493299515 28.0
10.693203872192177 57.871589118542744 9.749257036421374 30.0
10.704774914868262 57.81995672428298 11.164382193742597 30.0
0.102312462346541 0.2873194903070214 -0.34071572727202704 2.0
0.10394255052437971 0.2925370736551069 -0.3261682587221188 2.0
0.11428173780483122 0.3527993117786601 -0.3416688819686902 3.0
0.12434863596881726 0.4064500457402366 -0.35166029491473827 3.0
0.14583653416660572 0.5131005866984186 -0.3836303405907976 0.0
0.0014108933001768886 -0.2594914854822281 -0.010592382754126982 0.0
0.3331076867421296 1.5148427273118226 -0.7646872698329426 3.0
0.7967440362593936 3.98093070251759 -1.692202032582796 3.0
0.8513546756837783 4.265666617143752 -1.683669700161346 19.0
0.9160559381133135 4.606987660981041 -1.6807283557965254 9.0
0.9711886618226117 4.8944268463985035 -1.6429456923371208 6.0
1.0482273934098008 5.287681856984773 -1.6260973909365821 18.0
1.143256256405956 5.779635823228031 -1.6152208129504635 7.0
1.2465735198874561 6.318675906683868 -1.5923381029830035 7.0
1.3771677250815206 6.994803281050608 -1.5755713670519507 9.0
1.50225236562312 7.636328727155056 -1.5182342814129537 7.0
1.6352588816699054 8.542040104570999 -1.4744965070905303 7.0
1.8332385018893171 9.593498050156537 -1.4107272981144632 15.0
2.0782803019122897 10.898045054863575 -1.3273700390794814 4.0
2.3854504594833155 12.519542199588406 -1.2131389308640224 6.0
2.865994842025319 15.061197847424648 -1.0882171298704129 8.0
3.6502506787579363 19.243691690271984 -0.9203665643872162 3.0
4.804175267698471 25.35991902705718 -0.5956684822580118 3.0
-4.920734496817046e-05 -0.25889887362316605 -0.011065917450730713 4.0
8.743398006009727 46.222344446884144 1.1238844712043952 17.0
8.736552816777762 46.10203238058199 2.2259135241327965 54.0
-2.8031098704652826e-05 -0.2591997462469089 -0.011106775079533645 9.0
-0.00040565144966565577 -0.25964833502806467 -0.010817878035350866 10.0
0.0009658566432664633 -0.25977724653551415 -0.010420277162560197 9.0
11.200349790539319 58.77205380789387 8.481608962233546 29.0
11.209211268568005 58.71035682043311 9.900311573544219 31.0
11.219412677348709 58.70027290859742 11.345719141053364 31.0
0.10576125436263875 0.2871161052872702 -0.33950677458295025 2.0
0.10715081634772552 0.29327050254209897 -0.32701875699680055 2.0
0.11502057325612514 0.3409132829148861 -0.3362580570533039 3.0
0.12829986764093138 0.4035560302983197 -0.3494276457881409 2.0
0.14605899058676677 0.4990445469378191 -0.3753611062122185 0.0
0.0005129005838824697 -0.2597089168153507 -0.011240414039073655 0.0
0.3433409078410725 1.5107303609526246 -0.7630047504969243 3.0
0.8213140803085536 3.9729774447620065 -1.6903234452259264 3.0
0.8766272366445959 4.261496361895049 -1.683699919783249 19.0
0.9443638404162817 4.597792426195354 -1.6787205976902322 8.0
1.0053356080890572 4.898487849506823 -1.646735048890934 7.0
1.0801721966605529 5.279164413514057 -1.6241142136991653 17.0
1.1776670619405578 5.772743895533392 -1.6140648428354185 7.0
1.2869640877798034 6.318980781279565 -1.594416235618431 7.0
1.420031720780481 6.984635498160794 -1.5737065863615327 8.0
1.5465190525015549 7.620393600644373 -1.5173419107839003 7.0
1.6853300497424637 8.525207638974152 -1.474247984604895 6.0
1.8892520010110125 9.581205641995247 -1.4105476244737518 13.0
2.14171069491499 10.874870097735029 -1.3262201478862004 4.0
2.458126352512045 12.489205326993305 -1.211398148320555 5.0
2.947626994860998 15.016336756192034 -1.0865705454233483 8.0
3.754694820506829 19.167411710201442 -0.918500665550046 5.0
4.934659398297291 25.22033853546682 -0.5939882123053706 3.0
-0.00010399487358576562 -0.2588270189390993 -0.010990365444294381 4.0
9.038088314723126 46.27562132332708 1.126125747260042 18.0
11.537517798381943 59.03218297169993 2.853056432135561 56.0
11.539128461713862 58.97795685140878 4.256643978999208 85.0
11.552978701160907 58.93625895717993 5.663302466964175 85.0
11.554302306319927 58.83264510595828 7.078644372452896 87.0
11.55280910332972 58.775342167172454 8.490614357840473 59.0
11.549825233181094 58.64478335997742 9.900011283787023 31.0
11.577673649342781 58.67899166210072 11.354526893333388 31.0
0.10968085000413422 0.2900456860473342 -0.3432099933366498 2.0
0.10827845295952145 0.29102964708638523 -0.32584355045922886 2.0
0.12034362350793161 0.3467735217660521 -0.3386383617789461 3.0
0.13327374955761614 0.40852726987462323 -0.35156333846869303 3.0
0.1513958260541016 0.5028396669090046 -0.3784366138248101 0.0
-0.00012128798133485461 -0.259384326032505 -0.010415252521854514 0.0
0.3528002897086313 1.5122816011044171 -0.763059326624403 3.0
0.8450506190744699 3.9711871963298297 -1.6919587661542341 3.0
0.9041829489817854 4.259490067961264 -1.6835855869202243 18.0
0.9729536538030527 4.5937537132410515 -1.679120690961761 8.0
1.0337605372683207 4.889429006669257 -1.6455229111310805 6.0
1.1126472911435141 5.279064014110442 -1.626246344002539 18.0
1.2132886360363635 5.7691418711437334 -1.6148119646155226 7.0
1.32444265221643 6.313777067102257 -1.5949098733192504 8.0
1.458361730254093 6.96761893362769 -1.5716757537319324 9.0
1.5921745563407865 7.611465758868158 -1.5166569552901699 7.0
1.7356783808671101 8.513437208963813 -1.4738959315844125 7.0
1.9449799609894267 9.562339720461276 -1.4096914505559093 12.0
2.20524012622239 10.851305205105357 -1.3242001383291477 5.0
2.5297715647776564 12.469825199579235 -1.2118153264833116 4.0
3.035964020662175 15.000867670825409 -1.0868061555832231 8.0
3.8654059056025556 19.139859188632425 -0.9182254397243206 5.0
5.069526929333416 25.126258761032375 -0.5917259300936976 3.0
0.00107287241725989 -0.2596263419635884 -0.01095391958423113 4.0
9.311715107086654 46.24539705673012 1.128034533774619 18.0
11.800927651239697 58.57110128582276 2.833751916468762 27.0
11.797402794775646 58.503885254074966 4.227542612147282 27.0
11.796279338492134 58.39211009822808 5.617757251981303 27.0
11.820644712289056 58.398218930086195 7.033344144560131 56.0
11.829139653157796 58.38560498432779 8.44478454760758 29.0
11.837774977103466 58.32668971056517 9.85684779349693 62.0
11.85186906614892 58.284772647913506 11.291996024827016 31.0
0.11092731523299067 0.2820743746380219 -0.3376549986295371 2.0
0.11330942812420526 0.289929276648942 -0.3243390691114707 2.0
0.12466077858437813 0.34788038503398516 -0.3389993130424481 3.0
0.1352055072939289 0.397911354392106 -0.3480005394881811 3.0
0.1589587004496136 0.5109277932232988 -0.3818370303986143 0.0
0.0007805488071532766 -0.25841356685375316 -0.011448777767231072 0.0
0.3652203930070687 1.5126985320795021 -0.7660083425272821 3.0
0.8684417925062818 3.9613783994904566 -1.6901233289716744 3.0
0.9326734011153324 4.260699875684263 -1.6872743650919624 18.0
1.0016273731521015 4.590999409005227 -1.6799900969610124 7.0
1.0642001178557485 4.886073817611911 -1.6454236101157413 7.0
1.1446722330750987 5.272652147874815 -1.6251156598992047 19.0
1.2481505262109098 5.762493451746356 -1.6153935440363842 7.0
1.3636696209373187 6.307556514381333 -1.5952868893096133 6.0
1.5012313430470052 6.963556956914882 -1.5721586209321852 6.0
1.636225599470923 7.600803504902627 -1.516224598633765 6.0
1.7884095970074818 8.506541819347133 -1.4733382418524406 6.0
2.0019977777283393 9.543201205297452 -1.4099358605970231 11.0
2.2697973781768144 10.832538428426359 -1.3240227994183702 4.0
2.601562173171415 12.437029504549571 -1.2107441469879474 4.0
3.1223786556645496 14.964337111203186 -1.0855321514192824 8.0
3.972671487330005 19.072527893997435 -0.9152942258652318 5.0
5.200199293072417 25.022887481411992 -0.5909361890244473 3.0
0.001312268695723033 -0.25786672074344874 -0.011517725369351218 4.0
0.0014747972271965436 -0.25896054740457874 -0.010298581607830563 10.0
-0.00042720361839075887 -0.259475651771634 -0.010679546446622312 9.0
11.955954987912811 57.50975802682467 4.161438276570167 53.0
11.959759928730117 57.48316222117319 5.537877724606267 27.0
11.910353817913574 57.13387664793614 6.889611760788278 27.0
11.89584608614256 56.96233166388234 8.248833646192486 27.0
11.976680784192624 57.30267301611544 9.696912513761378 60.0
11.908422185082243 56.87437383837847 11.031205222462772 29.0
0.11301592466090583 0.2790092308941715 -0.3367212034315878 2.0
0.1179346024264132 0.2962719585135592 -0.3288777690805374 2.0
0.1256854591768623 0.3419041065367841 -0.33638861804905446 3.0
0.13851051878415768 0.3978562783927401 -0.3469012353602344 3.0
0.16040872488489225 0.5033356358404031 -0.3776436105469628 0.0
0.0003420057811766335 -0.2585869493035044 -0.011345049456549855 0.0
0.37518858107470576 1.5153147585043556 -0.7668280122580137 3.0
0.8946435229770591 3.960273848900248 -1.6921317634209267 3.0
0.9572046270615704 4.2539901836115215 -1.6854200824317789 18.0
1.0306564838376093 4.589495170480944 -1.6823148670635943 9.0
1.0939935662810787 4.882579525459373 -1.6463076121306468 7.0
1.17802766525406 5.267188410157972 -1.6260495303291231 17.0
1.283974884655032 5.757019497953422 -1.616694864949035 7.0
1.3979394817338375 6.287143701866284 -1.5917448963250378 7.0
1.5418350175185311 6.942874467481215 -1.5709875550521548 9.0
1.6835340400046468 7.588678230444948 -1.5172786774215354 5.0
1.8334348409670822 8.481148397191228 -1.4707236116534494 7.0
2.05730015502847 9.527031798565739 -1.4083400014057352 13.0
2.328173348913095 10.807789894041505 -1.3218751550166068 5.0
2.669961608745986 12.412618399990654 -1.2079967717431803 4.0
3.208543869413813 14.941315144253975 -1.0845764803848226 8.0
4.075846212251616 19.027467445182225 -0.9143187986586407 5.0
5.338440248201459 24.959250460919943 -0.5897178520608053 3.0
0.0013637292844627179 -0.25822573428829465 -0.010340005770659666 4.0
10.210363938299496 47.853590698097406 1.1688872106811834 40.0
11.730924331244541 54.91772504036206 2.6644804389812666 25.0
11.937594346708366 55.79980083983814 4.042108737421021 25.0
11.950664897747417 55.75558431614573 5.377813136040146 51.0
11.453206063042474 53.38176116628775 6.447042266787634 24.0
11.90171387098151 55.387629940551335 8.031667090263678 26.0
11.96521554311829 55.58761019822612 9.417404102583344 60.0
11.900167848117086 55.229372971327976 10.726141162604595 28.0
0.11835949040411596 0.2930503871258885 -0.3447404912015796 2.0
0.11887723901892404 0.2882212377810728 -0.3233453356333156 2.0
0.13165882254015068 0.3479791143425893 -0.340155993901351 3.0
0.14339806931561336 0.4018714326670258 -0.3487242539855404 3.0
0.16564641654332068 0.5017864672376744 -0.37884549977570053 0.0
-0.0004237533064394703 -0.258075964563433 -0.011817933912018876 0.0
0.3850087104141309 1.5088507762529788 -0.763561769955479 3.0
0.916594836714086 3.9481233826655844 -1.6891395273775367 3.0
0.9838054663831732 4.247460161912803 -1.6849949768929426 24.0
1.0588851004924786 4.58605565039986 -1.682913216816383 9.0
1.1236244163965026 4.874255809062182 -1.6455526899799182 7.0
1.2100298175625757 5.2595570157091425 -1.6258782006687607 18.0
1.3170752087513529 5.745664505175182 -1.6156316159944641 7.0
1.4380757554042496 6.283379049873836 -1.5932446349039724 8.0
1.583119099208231 6.9303923384698995 -1.5706506146605475 7.0
1.7270823508063389 7.574784438118313 -1.5148265426576537 6.0
1.8850828899653143 8.4625440511888 -1.470106068173596 8.0
2.1136656390418707 9.514120230336308 -1.4072037993059456 12.0
2.392442445386353 10.783555247508682 -1.3210735907835973 5.0
2.743574776473927 12.384920625174978 -1.20727345046943 5.0
3.2911596809538106 14.902797337691213 -1.0830980804126387 8.0
4.187594657214188 18.98892943532079 -0.9151915788210514 5.0
5.479947447555753 24.89070023006438 -0.5895665564886978 3.0
-0.0004109643082252086 -0.25694174202006614 -0.011050366390408089 4.0
10.36779414243081 47.20752743714793 1.1548271650171171 78.0
11.733965412575346 53.365931897510514 2.5925407498229815 24.0
11.726983354977367 53.29279616320881 3.8643507217258737 24.0
11.724682732098577 53.18856000655188 5.137191192620825 24.0
11.438662920131598 51.79623721059578 6.264618532157824 23.0
11.745526781293943 53.14742410081003 7.716379351018917 25.0
11.745746519750627 53.06037943272112 9.003131869774672 30.0
11.763804399529965 53.052129112032134 10.318040557370304 26.0
0.12216388691788853 0.28698847756030493 -0.34101355370377945 2.0
0.12199216338508832 0.28629599826287455 -0.32250036995130354 2.0
0.13345681645304244 0.34071731756192436 -0.3357975983909152 3.0
0.14761106495955792 0.40540690868856144 -0.3512744262860606 2.0
0.1707893337301778 0.5049209909533209 -0.3800664445775637 0.0
0.00035245395991999556 -0.2575945588453256 -0.012047034157153634 0.0
0.39596482290536444 1.5108384020597252 -0.7667788349397825 3.0
0.9428358664029303 3.9455828874379897 -1.6881838609486104 3.0
1.0108570585935768 4.251296909548129 -1.6891825037103139 16.0
1.086605270779002 4.573494188954446 -1.6809051168830351 8.0
1.15290443493293 4.86919009422901 -1.6472059623452258 7.0
1.2412900604648949 5.251720754993844 -1.6251987604508034 19.0
1.3517602093180505 5.7369510300917295 -1.6152954854329757 7.0
1.4737710794885193 6.270223161871357 -1.5912762241105662 8.0
1.6213727500112798 6.914924900762191 -1.5686459571568183 4.0
1.7698401852384988 7.556069445662181 -1.514189405106303 7.0
1.9320025098984923 8.438254989610204 -1.4667592069271214 8.0
2.165065646183605 9.485267795310111 -1.4052455723682997 16.0
2.450280460730075 10.745454923896697 -1.3192450174847534 4.0
2.814117390825418 12.357606787451875 -1.2061792333729662 5.0
3.3765719277642017 14.869846610809963 -1.082352769482044 6.0
4.293681106000927 18.95157608073287 -0.9129585854797603 5.0
5.621463455291411 24.84191608345968 -0.5873850478450342 3.0
0.00016402109559211797 -0.2570279901883715 -0.011488429909210758 4.0
10.651817171146268 47.19820683369701 1.155996200996776 78.0
11.796796186380087 52.2040621138377 2.5388004244724414 69.0
11.797287371350079 52.163205650302096 3.788460340699338 70.0
11.70917328086077 51.68406089758845 4.998498720020199 23.0
11.41860167117566 50.31782193601009 6.093563854660518 22.0
11.805884904681145 51.988522517021046 7.560111524229183 73.0
11.811959381802195 51.92969902999702 8.822389271048328 90.0
0.0009774432969780515 -0.25790203374526793 -0.010839916946148342 30.0
0.12468853634704873 0.286100299808454 -0.340841964120862 2.0
0.125297275371744 0.29132296645442446 -0.32575429872509226 2.0
0.13431749845681354 0.33261195372913405 -0.330936154427977 3.0
0.15004628199981343 0.397770553951787 -0.3484295995382481 2.0
0.17620533701378002 0.5086174289107055 -0.3829656917732977 0.0
0.0006650888876373791 -0.25760072593305716 -0.010478588857218215 0.0
0.40713539462355003 1.5101440308403975 -0.7665012841376501 3.0
0.9669682269854887 3.946252091227483 -1.691273460579898 4.0
1.0364499516190917 4.234238897748176 -1.6844554644400802 18.0
1.1144215088066747 4.573607580035473 -1.6816594840902144 9.0
1.1811063893140443 4.858243637650317 -1.6448050495123874 6.0
1.272826059610992 5.244759317743232 -1.6253896671440533 19.0
1.3857551790644749 5.727808940191099 -1.6140876624741116 7.0
1.5112757521975564 6.254905041917477 -1.5891935677503621 6.0
1.6632473208666054 6.901668911391566 -1.567839980732322 6.0
1.81514880109963 7.540196371803063 -1.5137753950351562 7.0
1.9797569251943639 8.416740349720058 -1.4646509463464832 6.0
2.219679607251464 9.455183173483432 -1.4038986810694782 12.0
2.509646912481164 10.716458553129268 -1.3167665869357728 4.0
2.8867525987470377 12.347693976587813 -1.2074520584353292 6.0
3.4625278104565527 14.836787120581656 -1.0812885067816695 8.0
4.398462858977527 18.898774899146236 -0.9120881430515067 5.0
5.766135320257243 24.81552397107561 -0.5875223887019044 3.0
0.0004914907190683973 -0.25664481482357915 -0.01026191904819465 4.0
-0.00022576913868984575 -0.2581100354237757 -0.01052345249003838 10.0
11.81491066873778 50.905373006373665 2.4787805925278463 22.0
0.0004590036316896516 -0.2572756487794677 -0.010367001697117026 9.0
11.692949792338085 50.218482449101046 4.864024052798891 22.0
11.444132822363134 49.10326633952385 5.955007562704658 21.0
-0.00023342758983746189 -0.25623182780858417 -0.012149340878616344 5.0
0.0014648359609346112 -0.2581265982282011 -0.010454361822905843 18.0
0.0011268278437913226 -0.2569021049162671 -0.011935446988942151 30.0
0.12825664329420872 0.28522715565872037 -0.34162523981313414 2.0
0.1294592207125949 0.28940339422068634 -0.32682752752897865 2.0
0.14088381399433397 0.3458427003962562 -0.3392060863959327 3.0
0.1558807315668473 0.4083241989579577 -0.35252557553800346 2.0
0.177496761190086 0.49502439056330794 -0.37516100312506306 0.0
0.0010792462376194806 -0.2564801940586201 -0.010662624209297143 0.0
0.41653598689020405 1.508925361379578 -0.7679188556932667 3.0
0.9903785202449715 3.932308847767056 -1.6882694961775164 6.0
1.0636161438788743 4.236256571373117 -1.6879001018678967 19.0
1.1448712695984224 4.571185399954656 -1.684240769018134 9.0
1.2148245925989665 4.85892855575606 -1.6467637985367694 7.0
1.3058309140309665 5.24375681958903 -1.6267156935573464 20.0
1.420826539483024 5.715654197271919 -1.613566060670856 7.0
1.5460142095692848 6.2357342859322005 -1.5875382903455189 7.0
1.704893467473836 6.889979169822535 -1.5660394709512375 6.0
1.8566795931438849 7.519612697289549 -1.5116339128277834 7.0
2.02799747563179 8.396103164443899 -1.4644279166559835 6.0
2.274203049969889 9.438176100844395 -1.4018087163640485 13.0
2.5751146805834058 10.702788255314527 -1.3177614410713996 6.0
2.9632802455442238 12.335357345993483 -1.2086689900414171 4.0
3.545565570307448 14.802625408361987 -1.0800020962582229 8.0
4.508689842259355 18.854016497085244 -0.9110490432664327 3.0
5.9314228211851745 24.84772109292124 -0.5899578716978456 6.0
0.0005119045413210263 -0.25761038331616615 -0.0119657517028219 4.0
0.0012232152180312002 -0.25777419733989787 -0.011885523723301171 10.0
11.800319010412153 49.494892789798335 2.414005261131506 21.0
0.0014725959884821387 -0.25616676095152086 -0.011694837153732592 9.0
11.667587351527638 48.81957711872749 4.734868980644999 21.0
11.464585645347023 47.89514139031664 5.816466883831958 20.0
0.0014610836201488548 -0.2578349221406961 -0.010166115193578282 5.0
-8.218267032108193e-05 -0.2558909083862919 -0.011797540222255255 18.0
0.0009379786318820492 -0.25697129780669314 -0.010420034140977275 30.0
0.12954806113393058 0.28148574090251083 -0.33943416396859477 2.0
0.1319465524284943 0.29089531168269134 -0.3266612858074605 2.0
0.14483218748768337 0.34249501311788694 -0.3384295686033095 3.0
0.15992014310318467 0.4043734140129126 -0.3515659338412606 2.0
0.1817546510931651 0.49738457525261454 -0.37861451755101716 0.0
0.00024276954665349113 -0.25647434620331444 -0.010854795955829243 0.0
0.42533929689440236 1.4959828943541071 -0.762500461839772 3.0
1.0161750536444023 3.9394683669544106 -1.6926377610546965 8.0
1.0896811086781262 4.230976852537898 -1.687387431220962 22.0
1.1692004035666208 4.555454090924847 -1.6804342641166834 9.0
1.240490179259917 4.846636236844091 -1.644556302640513 7.0
1.3379902606729714 5.2367734697130635 -1.6281289808009982 20.0
1.4509973650649963 5.6950498006096915 -1.609457644989476 7.0
1.583995802726632 6.229235831151524 -1.587593183305643 7.0
1.7434692133818057 6.877447119851891 -1.5669174108183574 6.0
1.9005663502638717 7.506604311798793 -1.5114367613378603 8.0
2.075922665658036 8.375125205441384 -1.4620757010827676 6.0
2.3283298346128314 9.420400449874341 -1.4030480039674913 17.0
2.62961345918779 10.654774033740544 -1.3137419248686233 5.0
3.0363320328845664 12.319599567487899 -1.2075869569002116 4.0
3.6328939808857226 14.777581588659762 -1.0803079077110118 8.0
4.607841690784351 18.788488029974406 -0.9097214899267877 5.0
6.067372009968157 24.801263120027823 -0.5900139500037255 6.0
0.0007246309327696857 -0.2555655044601704 -0.010924155241792214 4.0
11.738794719250667 48.076663518923446 1.1825033754244458 20.0
11.256525837149525 46.04792877612994 2.2488788843737577 37.0
11.263530484357368 46.00616060640001 3.354263264751416 18.0
11.270378073642314 46.000333284088356 4.467252365463368 19.0
11.27154477264996 45.93513172100876 5.586087542285605 19.0
11.28002566285919 45.898371713764185 6.703937840543719 41.0
-0.00017442313422841088 -0.2568332345331406 -0.010149203101682436 18.0
0.001045396973500703 -0.2562770493605901 -0.011818717619330496 30.0
0.13537729563626907 0.2927044486072023 -0.34482782212893726 2.0
0.13328470898885775 0.28538084306116795 -0.3250807947715841 2.0
0.1481598852512046 0.3424862456929064 -0.3374806161238984 3.0
0.16012448846113833 0.3938803798733354 -0.3470068187586469 2.0
0.18497635892452322 0.4877841687107553 -0.3740886174997601 0.0
0.0006719510978593947 -0.2566665885872787 -0.010218153218840509 0.0
0.43745652186682715 1.5087633612143634 -0.7695015959629942 3.0
1.0394599890766154 3.9303287863712475 -1.6913622253070704 7.0
1.1149248874884061 4.225568303544354 -1.689165399454813 22.0
1.1978865146346702 4.555964108934892 -1.6820889287386598 9.0
1.2710185921722408 4.841003786765356 -1.646726175849417 7.0
1.3707645572585612 5.230152319115887 -1.6278203302343794 20.0
1.4856937991701613 5.687036326274099 -1.6094645072843166 7.0
1.6207154941146815 6.220849476949455 -1.5871276611620264 8.0
1.7823967877393163 6.857939127526557 -1.5637088717207093 6.0
1.9439123719861398 7.486348582893698 -1.5094647555310943 7.0
2.1184955141980506 8.343792148865083 -1.459247257546483 7.0
2.380763466416713 9.390345254472379 -1.3988774314560402 20.0
2.683825005655713 10.613226005789343 -1.3086089902473224 5.0
3.107838944651004 12.310539605721189 -1.208303163806094 6.0
3.7171005253805793 14.753318124997843 -1.080965096374739 8.0
4.709059091004738 18.73988032911578 -0.9096118539808625 5.0
6.205097950581902 24.740140092308447 -0.5885897876355314 3.0
0.0009740479187678645 -0.25671503537793694 -0.010188781220932357 4.0
11.624331633337308 46.46160849100704 1.1431535941218796 37.0
11.56348491721208 46.14498477293068 2.255527458380605 18.0
11.64939172842157 46.42498210663125 3.3894291910113306 19.0
11.658971692611066 46.39166845526574 4.511592286004952 19.0
11.570291406498585 46.00306352355972 5.602856951081541 19.0
11.630911976727704 46.17444101139813 6.7532294310614835 20.0
11.67342554670831 46.277030884578224 7.908797617251109 28.0
-2.855549549857651e-05 -0.25664326924394093 -0.01112092888242074 30.0
0.13595765078955052 0.27946253444042973 -0.33844589720715085 2.0
0.1363800969002393 0.28483925830046447 -0.3248916033458582 2.0
0.15112211122774089 0.33787162168632767 -0.33694764262571714 3.0
0.16790780703832264 0.4028171138457392 -0.3516503250304758 2.0
0.19282535478341695 0.5009566697733155 -0.3809547878868971 0.0
0.0012804784068848674 -0.2568329360872852 -0.011413201423011842 0.0
0.44654938610745326 1.5019021070167935 -0.7657266085987587 3.0
1.065640843960939 3.926381042155789 -1.6935046953446158 8.0
1.1411539577511065 4.218325805461199 -1.6882291584710685 25.0
1.225243670419162 4.543720117895575 -1.6811340565918704 9.0
1.3017450414414096 4.8331360026246335 -1.6454730724409998 6.0
1.401619903229346 5.221034223602829 -1.628385260008552 20.0
1.5197655127179732 5.674670034803294 -1.6078716902924066 7.0
1.6576324225571695 6.211947289220674 -1.587674798955129 8.0
1.8224975319250638 6.844073364818287 -1.563208290676051 6.0
1.9866144916536999 7.470412825224031 -1.5073005689261119 7.0
2.167300559145841 8.323754145049506 -1.458555763035453 7.0
2.4328743081728605 9.364102783794538 -1.3980798139053519 17.0
2.7424385002625713 10.57441234588146 -1.3080032295404525 4.0
3.180191020151925 12.286015136815118 -1.2081515228179724 5.0
3.80032766167859 14.713948118233604 -1.0794909230021148 8.0
4.806488297557563 18.65433720199807 -0.9068431873296979 5.0
6.33712545005662 24.640291166123998 -0.5870029963174775 3.0
-0.00043323469997100814 -0.25647427867062456 -0.01040813281437043 4.0
11.711354427771244 45.65038443175126 1.1259207134910074 72.0
11.71835812971655 45.61193760314983 2.23288354469942 73.0
11.717604315581479 45.56998396334254 3.332215295958559 73.0
11.734508407107985 45.56610995136181 4.43865820407289 75.0
11.60195975280957 44.98425266542661 5.487360419932362 37.0
11.760818326007431 45.57097344688933 6.6749266664872975 61.0
11.775558131438713 45.56022924868483 7.797886271997026 82.0
11.587305336667718 44.762511155150534 8.784216431606835 21.0
0.1365265124485138 0.2738942086656288 -0.33437161288850126 2.0
0.14151727917258733 0.2856015131600249 -0.3256700194960104 2.0
0.15378603362551152 0.3397885636385069 -0.3373952220453664 3.0
0.16954769026763153 0.3983362257723975 -0.35024567344735674 2.0
0.19738364542734413 0.5014893142879152 -0.38143702051371636 1.0
0.0010830923382109516 -0.2564929178529602 -0.010399712563719948 0.0
0.45779915310124747 1.5032277695867655 -0.767300578037722 3.0
1.0888728231660803 3.921605682404168 -1.6926844136110661 8.0
1.1665793231379338 4.209401811962226 -1.6864808088963679 22.0
1.252835727341206 4.5370976733776915 -1.6807672264713593 9.0
1.3293173945460295 4.8233653768943885 -1.6445006772032569 7.0
1.4313639762505004 5.207462962121706 -1.6256857688626725 20.0
1.5529150462459647 5.664945242876423 -1.6092057945125213 7.0
1.6944787123102427 6.200467519486998 -1.5867853814412929 8.0
1.8630315606857093 6.830328889656407 -1.5632092963653104 6.0
2.0307058405250333 7.456241730210908 -1.5072168523311698 7.0
2.2139999917290165 8.297830788559635 -1.454969664920081 6.0
2.486434408386374 9.344391935957171 -1.3978584487176933 17.0
2.801399342402808 10.546122184678334 -1.3063948010484707 4.0
3.253012468423638 12.267352456587126 -1.2086218154856718 5.0
3.8834859766116994 14.681030575009105 -1.077668786729212 8.0
4.904653202138403 18.58433112735542 -0.9031760616100499 5.0
6.472815636718969 24.57121200950729 -0.5866173030709335 3.0
-3.4137669387999297e-05 -0.25603822720066655 -0.011926412768855322 4.0
11.994401615395963 45.65189212265733 1.1263758761493237 72.0
11.998471507728814 45.6015254049218 2.2356280203308176 73.0
12.002015853292274 45.581641760727365 3.3393529103340773 73.0
12.01364288765434 45.56236646357945 4.444672112244796 76.0
11.586635133043103 43.86950963309628 5.359584576165945 18.0
12.036362198016025 45.548940694751956 6.682251183310246 20.0
-0.00016374117925394547 -0.25626901599412144 -0.010562717964944554 18.0
11.856414743878593 44.730038948555645 8.791013797630914 42.0
0.1414459582913239 0.27904791124958694 -0.3372166767148338 2.0
0.14407742923013683 0.2871886220336823 -0.3259484797696636 2.0
0.1590582341909854 0.3392844282422271 -0.3379192138837691 3.0
0.17118463066210426 0.3902092445206827 -0.34591951163111917 2.0
