# .PCD v0.7 - Point Cloud Data file format
VERSION 0.7
FIELDS x y z intensity
SIZE 4 4 4 4
TYPE F F F F
COUNT 1 1 1 1
WIDTH 761
HEIGHT 1
VIEWPOINT 0 0 0 1 0 0 0
POINTS 761
DATA ascii
4.429779630928828 -10.272077732231727 -2.0920675305312244 6.0
5.255143538407981 -12.03976744112136 -2.1545114881037963 6.0
6.384828139343135 -14.615013930595698 -2.230902388250086 4.0
8.048458800273345 -18.39891316431016 -2.342371402806797 5.0
10.437645424095415 -23.866765769274668 -2.4275977490121288 21.0
10.439376438948685 -23.87155878281458 -1.8289254381133766 23.0
10.429393751991242 -23.872080885651936 -1.2266117182221963 28.0
10.429058478122219 -23.889570728445157 -0.6138729495209464 22.0
10.412538887961347 -23.88302046352933 -0.014024981609396688 21.0
10.411052623070725 -23.909664634552623 0.5858135293076571 25.0
10.400021164085505 -23.891163571907033 1.195029412033376 35.0
10.406534659581766 -23.93249580307502 1.8041047479318075 26.0
10.428826479677126 -23.976813213419646 2.413357570834398 29.0
10.42946342354759 -23.99998006243751 3.0373369062532416 27.0
10.079849258432667 -23.227095304892337 3.5357859333728614 19.0
10.400469178873973 -23.971992343757005 4.259933827188126 33.0
10.281895763744467 -23.727965793463852 4.836486642354067 64.0
0.2260981727066631 -0.6441320673401062 -0.3427367632206217 2.0
0.24138856244029083 -0.6683863257665471 -0.3395391144718448 3.0
0.26661613270525564 -0.7202601198496696 -0.35355177939405413 4.0
0.28335806055388557 -0.7618860482403889 -0.3582036449701538 3.0
0.3173483980093363 -0.8404849210685256 -0.38260113297458986 3.0
0.34967566035634223 -0.9104321229949875 -0.39135586765212543 3.0
0.3866380040378397 -1.007044345185253 -0.4128465036445018 3.0
1.996948241471339 -4.730611042131424 -1.9724942373077026 11.0
2.1547905306916593 -5.102595139273595 -1.9836829613196496 30.0
2.3203448041129597 -5.5059409538174044 -1.9897562981103876 17.0
2.534264446778745 -5.990642953400321 -2.0005937573616004 18.0
2.7678832981396044 -6.554787452669402 -2.0202936968742087 35.0
3.069341081072356 -7.24012927399255 -2.0415212812444454 19.0
3.4051655262350726 -8.053630237622206 -2.0532669668128904 14.0
3.831117641495412 -9.031338802586095 -2.0676226853186144 9.0
4.372430472165493 -10.312246333227623 -2.101752351874438 7.0
5.196909465327626 -12.103378112618577 -2.159788426964993 7.0
6.3160039487450765 -14.687739238988593 -2.2455707747388125 4.0
7.967921917145696 -18.497445310056907 -2.3530567606029487 5.0
10.563365391773427 -24.52148933871907 -2.4982752878347236 7.0
10.794177571666665 -25.073748771695858 -1.9102722853523926 26.0
10.792309088842838 -25.073789598807455 -1.2829498430272122 22.0
10.779605490313772 -25.08372426259016 -0.6489476028569964 24.0
10.776711791197371 -25.0955745120519 -0.016445673534046308 24.0
10.788729939950949 -25.13030882600177 0.6224441717824608 28.0
10.77002841955565 -25.12814306297515 1.2553034580277658 33.0
10.76955467787513 -25.15055038145009 1.8899930179106685 24.0
10.732858987911747 -25.071850593994697 2.521399397384357 28.0
-0.0031492444855497005 -0.11315036532453701 -0.004889404402489976 9.0
10.192958462225095 -23.86830295230978 3.6237186248450723 20.0
10.358604255465375 -24.276871362515394 4.305403862500152 34.0
10.165630641434142 -23.828150458432724 4.850849999982201 35.0
0.21946421107250003 -0.632774964963299 -0.343843974293803 2.0
0.2373430922455249 -0.6664746512941764 -0.3457812142536081 3.0
0.2611133724063938 -0.7223652952385796 -0.3548614801329312 4.0
0.28438902550928497 -0.7706742617593555 -0.3694069447622916 3.0
0.3078070815063906 -0.8390336589703539 -0.3803511568538849 3.0
0.3432859824681765 -0.9174626905045664 -0.39928978789187736 3.0
0.38088663982194754 -0.9998832062659772 -0.40754741944838957 3.0
1.965979713569409 -4.745379018339258 -1.9691039563709385 12.0
2.12297430927863 -5.126127708074843 -1.9839796161340097 24.0
2.2942839714009233 -5.523130435559568 -1.9979571637492763 19.0
2.4978449573059436 -6.008667924432633 -2.0044908027450026 18.0
2.7365947007988916 -6.571310166472893 -2.0147471709587963 32.0
3.02548611333606 -7.261260564168623 -2.0349631254331495 22.0
3.3662311445444018 -8.078090534192649 -2.0546584436701774 14.0
3.7860673589691825 -9.08025232846937 -2.0737713705438776 8.0
4.3175346295766746 -10.352686893517621 -2.0977685765338476 7.0
5.13284208243322 -12.154652669518306 -2.155563069573282 6.0
6.240541932674367 -14.746968916329093 -2.241521296551624 4.0
7.883563425370154 -18.605161464269028 -2.3564192236508594 5.0
10.482676989619343 -24.734223939160145 -2.513766321297635 8.0
10.793824550838636 -25.468028764005734 -1.9355158935233334 23.0
10.785801624634106 -25.497126083922076 -1.2969946702905348 13.0
10.778040693225382 -25.480131054528623 -0.6565653506695205 21.0
10.778514251250304 -25.498228921247332 -0.015042187986142354 24.0
10.777121647045698 -25.535709222725867 0.6306379431735634 25.0
10.758722830988901 -25.51650602748055 1.2729354900837115 29.0
10.772817408932143 -25.546678410874293 1.9219418635342878 25.0
10.724605908575533 -25.45962534148856 2.5554586630370015 24.0
10.114216498187211 -24.037853234822332 3.023143597973632 18.0
10.036552117681802 -23.88233232845835 3.6193504255125433 20.0
10.8656956139284 -25.854646926070092 4.5805172191466665 26.0
10.126421968854485 -24.133553856149096 4.9033265315169565 30.0
0.21612390419710845 -0.6326004931720763 -0.33954397991712526 2.0
0.23625307025962927 -0.671908617737126 -0.3418982456885074 3.0
0.25176814925575225 -0.710200913915323 -0.3481530349010765 3.0
0.26921217677631093 -0.7684829880324445 -0.36476599343641214 3.0
0.3071139799320906 -0.8424438517634968 -0.3779882796167464 3.0
0.3343295772901555 -0.9180774250734441 -0.39716340221393986 3.0
0.36863943923448456 -0.997620899564156 -0.40713316455459564 3.0
1.9374578778994558 -4.754968585767776 -1.968931625010887 14.0
2.093824278190561 -5.128616859726979 -1.9888472750509427 25.0
2.2663702068893103 -5.5446847003695146 -2.0012922908824518 19.0
2.4642051068826434 -6.017138033791666 -2.0053825057898877 18.0
2.6980398949143316 -6.582152595298725 -2.020457540998157 35.0
2.9757716868449724 -7.272394643599679 -2.0372857009863994 19.0
3.3250458379477745 -8.116079884000344 -2.0628506700516316 14.0
3.750986113869885 -9.13458180337507 -2.086152745687413 8.0
4.272428091801164 -10.40047523965934 -2.1044079886552702 6.0
5.070592754539528 -12.189832108334354 -2.1568502191419783 6.0
6.171639870408547 -14.815971687197097 -2.2497769123865994 4.0
7.786629774874991 -18.68153594512345 -2.3637113108725267 5.0
10.36824165876985 -24.856410539487825 -2.5126503444547543 8.0
-0.0005302129305518278 -0.1141149651998587 -0.00582935525462494 9.0
-0.004591128285203261 -0.10994003319022787 -0.0005123614175079555 6.0
0.0013158369006127414 -0.11650813790334448 -0.002617307939762846 4.0
10.770115745497778 -25.89358836133902 -0.015726320914309557 21.0
10.799112985522601 -25.995485892419172 0.6417677373194878 7.0
0.0047893897170686725 -0.1162692011991742 -0.007383847261326073 9.0
0.0005052758081904541 -0.10964652414755333 -0.006145202652683662 9.0
10.699342422276882 -25.830663682021978 2.5881911584014614 25.0
-0.0030527021653847675 -0.11715559083007146 -0.004066558260126311 9.0
10.016652161070157 -24.206733576305886 3.658702495105296 26.0
10.856103580495638 -26.257895935600654 4.637608496670727 27.0
-0.0013948141315782625 -0.11567271419504238 -2.6045554196023855e-05 30.0
0.2141943105164482 -0.6353908634145751 -0.3485699780012574 1.0
0.23165696626799898 -0.6596603071151843 -0.3413422780750122 3.0
0.254338797602787 -0.7171913687307327 -0.35054828904755114 3.0
0.2722122427505341 -0.7707813249178849 -0.35975348163434934 3.0
0.30585392841608056 -0.8454986342010925 -0.3817002664451912 3.0
0.33169224175580486 -0.912713890173832 -0.38945536499541367 3.0
0.3688896223313847 -1.0003009333689854 -0.4021331772765248 3.0
1.9187456990681726 -4.775437001552418 -1.9782814487075906 12.0
2.0642715757296353 -5.130489629254296 -1.9755939658896953 18.0
2.233030172092097 -5.553539603684792 -1.9929661731193131 19.0
2.426196733079531 -6.03445725444906 -2.0006937878791318 17.0
2.654466786818319 -6.591470195136886 -2.019420165139976 46.0
2.947608703966191 -7.3028957111767685 -2.042578804043747 21.0
3.284789418582144 -8.151697896156426 -2.0667823044431795 15.0
3.705906603604361 -9.16702503317379 -2.0828914922212434 8.0
4.219610891431215 -10.43859037824747 -2.1130995636824155 7.0
5.012004200893818 -12.25104834837832 -2.1634234810352417 6.0
6.0993929758590895 -14.890468992461953 -2.251950296745627 4.0
7.696994027244158 -18.763565563322054 -2.3682779374662672 5.0
10.275593011690392 -25.049013323552693 -2.5287341477084713 8.0
10.886653975216856 -26.53811720345057 -2.0144095437644713 4.0
10.892695957024094 -26.58706522899865 -1.349994184176028 5.0
-0.00035368016661428605 -0.11283469082671359 -0.003887803037913847 4.0
10.744726732338894 -26.265262826355023 -0.013509287473812602 21.0
10.937175056969766 -26.75169195089827 0.6528159708706514 16.0
10.935937374433625 -26.78399136534407 1.3343336730042676 16.0
10.937535697023334 -26.7947150138172 1.9993791673353305 13.0
10.689169976802775 -26.207630162793922 2.6139404709991534 30.0
10.482559856934174 -25.742902173899594 3.224347984845296 20.0
10.930891941735366 -26.84307249967488 4.04680142134048 13.0
10.847599703671325 -26.668100936463198 4.700848781440238 27.0
0.0014781659673970124 -0.11238883562667627 -0.00835137823608341 18.0
0.21375749448666997 -0.6400495124692325 -0.3381603074664554 1.0
0.2271222300082474 -0.6731775016238575 -0.3450950579181631 3.0
0.24268816669494186 -0.7157122900071794 -0.3565742578610677 4.0
0.2694642051976638 -0.7670294040646499 -0.35705608522025956 3.0
0.29805804256471585 -0.842983792185962 -0.3741683925462639 3.0
0.32957850080628653 -0.9196465806032496 -0.39529913700484937 3.0
0.36000592036518514 -0.999289413407312 -0.4003558424019815 3.0
1.894743278367965 -4.790509685591944 -1.97563390810674 13.0
2.026187554247643 -5.136885740823783 -1.9769300316636114 18.0
2.202237127532807 -5.570675058719241 -1.9942225327911167 20.0
2.3987269168351233 -6.055141561317968 -2.008415744896258 18.0
2.62288073317814 -6.6137051059199745 -2.0178272031598294 39.0
2.905058814352032 -7.3180201931437106 -2.0450523043507833 18.0
3.2453337426916185 -8.178605461742984 -2.069186535745761 22.0
3.6581329779559133 -9.21469817992822 -2.0918431419626478 9.0
4.162896552716093 -10.473191661082899 -2.1150101293653356 5.0
4.952325634922726 -12.300354188864093 -2.1755845218160275 6.0
6.035946364449232 -14.964578603617198 -2.266906897280698 4.0
7.606581595247556 -18.83995156052999 -2.367594284761311 7.0
10.204275371619815 -25.291886667340012 -2.55110165921231 8.0
10.77440412085212 -26.702305083931634 -2.017756506944841 24.0
10.768917383700003 -26.709725904774537 -1.3504261171216867 20.0
10.761760991559873 -26.723606179847575 -0.6750700892574508 28.0
10.559039659778646 -26.238059598645442 -0.00832476218956053 13.0
10.76873365287815 -26.772375045167877 0.6585204213039786 31.0
10.76474848181001 -26.800570729768413 1.3314469059109797 37.0
10.775528558586277 -26.82180335211732 2.0020540857890925 37.0
10.669943832692589 -26.596925106138837 2.655215595421941 21.0
10.630559744839895 -26.52529961418583 3.312826114446366 10.0
10.841601646826382 -27.071743370396483 4.068296351181529 27.0
10.838505117271946 -27.098123550259253 4.765684428758741 28.0
10.835818616664953 -27.105277825739183 5.468269212320199 31.0
0.20571716955322306 -0.621874051771516 -0.33498472044297506 1.0
0.2252123258279801 -0.6684682809106699 -0.3427836769578381 3.0
0.24755831433489592 -0.722833223782424 -0.35973846356843947 4.0
0.261453869514399 -0.7754163398421627 -0.3647091149653759 3.0
0.2925647485228757 -0.8430081494278396 -0.381196226806609 3.0
0.3231614208555217 -0.9192535591988678 -0.3876587431329076 3.0
0.350017484072093 -0.9984128889317103 -0.40920556832550964 3.0
1.8644698588896444 -4.798493177363066 -1.976179127575073 15.0
1.9958906473989648 -5.14474756012809 -1.9830732469576229 19.0
2.1724965405761303 -5.587887237561622 -1.9960543713717385 21.0
2.366426592758637 -6.068376184253876 -2.0044327830144324 16.0
2.5861589661406037 -6.634556487670063 -2.019846754159016 39.0
2.8582928981613698 -7.322468024529093 -2.0385940173062904 19.0
3.1986253593440015 -8.211684304507045 -2.073910141545788 22.0
3.613296246044159 -9.248182458375986 -2.099164370301394 9.0
4.106246352772481 -10.528986880909965 -2.1156489769865305 5.0
4.896181030506106 -12.35874025225178 -2.1777226619525223 7.0
5.960476441896552 -15.027718476390756 -2.2634888950919474 4.0
7.51188713094637 -18.915255496843535 -2.3766314409538913 7.0
10.08612143587835 -25.404117271809284 -2.5566410715919057 8.0
10.764735438540287 -27.145586456976684 -2.051535765056645 25.0
10.759200111433518 -27.134645492770357 -1.3674166995176784 20.0
10.752868390493518 -27.138668617760384 -0.6910844796691006 16.0
10.739586432039125 -27.144952914083365 -0.008277158322055705 18.0
10.756200338419468 -27.20469774040193 0.6610384628538007 20.0
10.749800642273824 -27.19353364603324 1.350175494180149 22.0
10.749873060737844 -27.238979296672888 2.0306022661205794 19.0
10.599212694813769 -26.866261693543986 2.6702973046861915 21.0
10.537804799606798 -26.749061364359726 3.3390447800550693 16.0
10.84008794582791 -27.519164588182903 4.125910295050259 27.0
10.83009999663159 -27.524898995478814 4.830197296508526 29.0
10.818511708413855 -27.528474555011808 5.543736076857768 24.0
0.2057663802314304 -0.6260215797549294 -0.3359780862158535 1.0
0.21587556515309908 -0.6686916759607092 -0.34094891702020613 3.0
0.24353364385886958 -0.7238536752888722 -0.3478848972238738 4.0
0.2599280461171918 -0.7727080918791406 -0.3612192399430963 3.0
0.2892332194045761 -0.8457021842946524 -0.37668395101846547 3.0
0.31657281360824396 -0.9210111240868938 -0.39518297504906863 3.0
0.34426113758570476 -0.9908537217398531 -0.40283052651797663 3.0
1.83983901257038 -4.812291874189689 -1.976660669034165 14.0
1.9709297131680867 -5.153788145657101 -1.9741851449806014 24.0
2.1457006841781836 -5.60756153470755 -2.001013353747991 8.0
2.3273322373959187 -6.081316195563405 -2.0071313578633574 18.0
2.5419213207394247 -6.646789182128892 -2.0164054590950493 39.0
2.818675749619583 -7.347343484251242 -2.038529917243292 19.0
3.1655040566118005 -8.246429580611128 -2.073288837116199 22.0
3.5640359454817245 -9.297637817694138 -2.1048505144975422 8.0
4.051099801127535 -10.567849721726802 -2.121405587812126 6.0
4.83891608006618 -12.417287898493216 -2.1761462446832653 7.0
5.878084556273152 -15.08897897116548 -2.274728403084238 4.0
7.398878131719482 -18.959180313057256 -2.3722104375969835 7.0
9.95011918721819 -25.500396331056457 -2.5539920255668127 8.0
10.758778930111518 -27.5850729728084 -2.0795778225887274 26.0
10.745934569260191 -27.57772451404168 -1.3927233235542438 21.0
10.740683518196475 -27.589475874058984 -0.700117666576784 16.0
10.732178721689069 -27.593521121992683 -0.013502381023827972 19.0
11.048428694713271 -28.41667745371887 0.6956448348537524 9.0
11.009990827417031 -28.332421476096986 1.395219781001509 6.0
0.0013277848852122154 -0.10750203058765971 -0.0008600930961527456 9.0
10.554501607311083 -27.229392114491702 2.6976756249257345 22.0
10.371670847245834 -26.78211065856861 3.3332988522552633 22.0
10.826475407886162 -27.979158340427517 4.1895903599600794 29.0
10.787332228091463 -27.912414203366094 4.886481502741185 15.0
11.061743148439408 -28.62325333549197 5.751281928754798 9.0
0.19701989639945397 -0.6220084023404829 -0.3309741541902305 1.0
0.21242955839465263 -0.6718231713075392 -0.3415537379471342 3.0
0.2409685017786543 -0.7214122369952504 -0.35485220103643705 4.0
0.250264681262485 -0.7680600053013203 -0.35721840294949414 3.0
0.285767423231194 -0.8419335215775152 -0.374780054723018 3.0
0.3151789827566104 -0.918604838850079 -0.3922296799459361 3.0
0.34368216764946813 -1.0034918200204066 -0.3980974673711773 3.0
1.803303872649988 -4.808090331002481 -1.9730038403729881 12.0
1.9394570210650826 -5.170815297241719 -1.9814548462685049 18.0
2.1154680732899758 -5.617371866366172 -1.9981469976692119 20.0
2.2951818648789355 -6.102548032524984 -2.0062609866627503 18.0
2.515616442642584 -6.668966125515916 -2.024847304478765 35.0
2.7728237875267863 -7.362981357275409 -2.0402696974339896 20.0
3.123273563930689 -8.269149990499555 -2.0760352450832276 20.0
3.515070204311243 -9.325760348139081 -2.1029300402755924 8.0
4.003960590098276 -10.604158019668978 -2.126961876812108 5.0
4.769682449293146 -12.46009315436217 -2.1842407866886697 5.0
5.805868561175707 -15.138762312053132 -2.2733552386045974 4.0
7.290903705201734 -19.01441555107297 -2.378552724527223 7.0
9.844459812971593 -25.648364221352665 -2.5636967153521675 8.0
10.760965066648685 -28.048588712124264 -2.1097515418486683 18.0
10.742904213257482 -28.037864177068744 -1.4130238074091752 21.0
10.726739564573688 -28.030218488151306 -0.710680752696973 17.0
10.736537089551293 -28.058567395443685 -0.014804329978203062 19.0
10.890687652948001 -28.485396202811923 0.6881934202006373 36.0
10.889838462754362 -28.52140740329286 1.4038540585151362 30.0
10.876697166346206 -28.515342957960392 2.115159327557297 21.0
10.522071793831225 -27.608688523367125 2.730980648097152 22.0
10.340270204386977 -27.171937433569383 3.3775968678190296 22.0
10.819959141853046 -28.44261360849147 4.245974043306359 30.0
0.0014392859894037128 -0.11339560149615405 -0.00852640765222767 100.0
-0.0009609687916176902 -0.11183845901974822 -0.007623291506650779 18.0
0.18679598659259877 -0.6113446114084643 -0.32605149057493393 1.0
0.2180622822246551 -0.6728218656094268 -0.34109945215215126 3.0
0.22853553747930244 -0.7157651298885821 -0.35173831323327404 3.0
0.25237675632706674 -0.770663432986835 -0.3593098826578618 3.0
0.2798648984841127 -0.8412943537027922 -0.37998978808429495 3.0
0.30212635256797277 -0.9197571551170887 -0.39263330127911467 3.0
0.33019739612281446 -0.991139954045672 -0.39863698407873466 3.0
1.777066128774157 -4.819627960638461 -1.9679190395898178 13.0
1.9157808499525004 -5.179495047116647 -1.9787291093234318 21.0
2.081433084418206 -5.617897998068835 -1.9936441110771874 12.0
2.257555876084888 -6.119257673746675 -2.013268770585159 17.0
2.476935231271795 -6.681419084359695 -2.018977538759279 35.0
2.728218648761701 -7.38082670864817 -2.0399609044046887 20.0
3.0675548641820285 -8.283202841412697 -2.082071540945783 18.0
3.47190949662028 -9.353744301542164 -2.10219391955452 10.0
3.949654693398033 -10.64893623235681 -2.1264057680591346 5.0
4.709558971548236 -12.502165062434527 -2.186968251588956 5.0
5.728478029255009 -15.195210271786092 -2.2788823552824136 4.0
7.190402537583369 -19.085926239604678 -2.3746094318617375 7.0
9.722975839238648 -25.782909393825104 -2.5776142826401953 8.0
10.755175555840683 -28.517361780044165 -2.141236468400595 23.0
10.814678447217808 -28.71569014946513 -1.4418073210736686 23.0
10.793856888436451 -28.693123797338206 -0.7221571415928039 18.0
10.728747049107138 -28.522279122366022 -0.009871154279205253 20.0
10.73449401095306 -28.57708966583617 0.6957919847150691 22.0
10.715230758604356 -28.56100511005197 1.4039186846793248 24.0
10.706437606994253 -28.551929307387727 2.1102751871765024 21.0
10.49914655586226 -28.03061973270261 2.7656207031043865 23.0
10.486112095583563 -28.031546828923926 3.4779919520849094 18.0
10.820224530635285 -28.925038253031612 4.309383729885376 32.0
10.8223458858709 -28.95206841712857 5.049386919009936 35.0
10.809976152930256 -28.972082526045984 5.789538248637678 37.0
0.17572125019271526 -0.587167880738182 -0.3113075300993045 1.0
0.20615780201156908 -0.6644619460145684 -0.33974978414184026 3.0
0.22527034124435844 -0.7288118592429027 -0.35551051604260225 4.0
0.24462325984609143 -0.7707040732692635 -0.3613691847921827 3.0
0.27474791611800314 -0.8423532756229994 -0.3770830802084466 3.0
0.3020224469800552 -0.9136543936462304 -0.3836998903579712 3.0
0.3349584435480529 -1.0038337010037868 -0.39979468118499406 3.0
1.757870350944022 -4.834161852847492 -1.9706315868718718 10.0
1.8798297645063322 -5.188129829615345 -1.9771635798401028 16.0
2.0468969625411146 -5.623000459215371 -1.9963097571245052 13.0
2.22755789952161 -6.141334297234688 -2.013143917527293 16.0
2.4345977612243788 -6.695553852571238 -2.0237579462866786 39.0
2.6968534041436847 -7.405118189075229 -2.039993244625624 19.0
3.022789387467141 -8.31189949463879 -2.0814783443010696 18.0
3.4286184579847805 -9.39277592286043 -2.1099453303537996 9.0
3.9052818690866853 -10.706559339071726 -2.1332734794595045 5.0
4.642734971322096 -12.548104193859194 -2.190298864477968 5.0
5.6512948237433065 -15.255307965846196 -2.2765575355495518 4.0
7.098802725664817 -19.156475758891872 -2.3844624543229385 5.0
9.607139929010403 -25.91920357053875 -2.586145141894484 8.0
10.744996472977716 -29.006894727033295 -2.173796177868146 20.0
10.785163094460069 -29.13467778413556 -1.4527994723058766 49.0
10.78424425520281 -29.16088945880288 -0.728758958620315 29.0
10.722910415381909 -29.01899087264746 -0.01716302421466131 21.0
10.729364780175368 -29.066526745456095 0.701921288977275 19.0
10.71765627240952 -29.053560390256585 1.4236294038456225 25.0
10.673346148857638 -28.957579214969147 2.134574480421905 22.0
10.46821496288856 -28.42858169675608 2.8076215725530678 24.0
10.353302022260038 -28.149616459804324 3.4779525743437327 24.0
10.816039166777879 -29.420415506148807 4.376358234525539 34.0
10.810640691818065 -29.432420124683333 5.117220832932319 37.0
10.801411514939032 -29.45248540230384 5.874393486048148 39.0
0.17407389268594764 -0.5910419021275997 -0.30721861963361424 1.0
0.20407429682371483 -0.6635055850450475 -0.3370197046728616 3.0
0.23108338384484775 -0.7242328896858035 -0.35551861608866914 4.0
0.24495520466962198 -0.7725634828576164 -0.35718673328292627 3.0
0.26785097068440994 -0.842129062971196 -0.37799614624397854 3.0
0.295006201675344 -0.9235918511905649 -0.39287747834470865 3.0
0.3279022215175499 -1.0068339254934406 -0.40044591222661263 4.0
1.7239252099497013 -4.84749117575711 -1.9759812501623648 12.0
1.8521335717007874 -5.201739549965132 -1.9832255434838415 13.0
2.007136054215632 -5.635799801162261 -1.995521880463142 15.0
2.194349282454543 -6.143176619964667 -2.0108322191712644 16.0
2.3906234880553976 -6.702240776400834 -2.0180178594289684 43.0
2.646169570743897 -7.412535602306989 -2.0406555884241815 20.0
2.982838126345413 -8.324475261913546 -2.0741701636069765 18.0
3.377487760541994 -9.424479481493176 -2.1093202432384492 11.0
3.8501437376790255 -10.752772886403202 -2.145131528222346 5.0
4.57447650312766 -12.585850992026163 -2.1866967795685883 5.0
5.561961422782463 -15.299760674617051 -2.2858386885603386 4.0
7.003186801362238 -19.2580245110265 -2.387988191253708 7.0
9.482619618233347 -26.061127706986994 -2.5898615952667363 8.0
10.744834444336345 -29.512481685102124 -2.2010740326349336 21.0
10.733815050965006 -29.517081875135663 -1.4776597198366757 25.0
10.716067636074818 -29.50544300668023 -0.7353026507009593 20.0
10.720065552556127 -29.52058812208086 -0.017152838273979707 23.0
10.731156880181453 -29.582440264814068 0.7154314171718895 20.0
10.710588754324057 -29.561680509959636 1.4488362671111197 26.0
-0.00020537152875296089 -0.10550047847226217 -2.1094142483965746e-05 100.0
10.459061676026195 -28.908470557282925 2.8445179054331176 19.0
10.32545315412276 -28.585794819339796 3.5266086010273856 25.0
10.711884014885126 -29.679826648992655 4.405065937268096 35.0
10.717422738957852 -29.70477939356496 5.160434397597471 37.0
10.72286480666009 -29.756148072785876 5.922654672561653 60.0
0.15939054539047334 -0.5673497312876691 -0.2910613483025831 1.0
0.20055881053059627 -0.6638569030819459 -0.33647549844692126 3.0
0.21827583998057856 -0.732483735532721 -0.35116191640017946 4.0
0.23847908840030285 -0.7780552136356552 -0.36405089171079047 3.0
0.26322531345630185 -0.8379039464478436 -0.37537504578939085 3.0
0.28892576897948324 -0.9213190537869385 -0.3888721039370683 3.0
0.3243762331016766 -1.0057647012961908 -0.40343489184561004 4.0
1.6966682097196015 -4.859615721233438 -1.9814787568093148 9.0
1.8272541050342583 -5.211326266257963 -1.9847243596694855 18.0
1.9779682971127153 -5.65348566858304 -1.9936772092393809 18.0
2.1596051540416368 -6.166749482153914 -2.0176365260138187 18.0
2.3601271383269853 -6.722905373795572 -2.0229916594774586 35.0
2.6098554339326068 -7.432539191270648 -2.0467757436970158 19.0
2.9284426504917906 -8.331318513513839 -2.0720205648937124 19.0
3.328090703873588 -9.459315392385369 -2.1164038343958893 11.0
3.7912459615914615 -10.793777419994557 -2.1464599731979255 5.0
4.5108129753688 -12.62428442147757 -2.1971736822466728 5.0
5.478070822028438 -15.324188786444502 -2.277527451485935 4.0
6.914247427884697 -19.345282934764768 -2.3929626422413133 7.0
9.355259061761322 -26.17070790619867 -2.5916170023863727 8.0
10.233539900813534 -28.632136295333638 -2.1290386020618386 28.0
10.727533273392437 -30.031376023514532 -1.5006496888909482 26.0
10.713095187319276 -30.029326970613756 -0.7554437129062341 21.0
10.70841944867948 -30.03034532032078 -0.012453539868018317 24.0
10.71894750294051 -30.09682155469836 0.7303205295513783 21.0
10.702533738856816 -30.083763912646223 1.4740809011681053 27.0
10.66202328093124 -29.99409738571494 2.2046660856325064 25.0
10.44106421289643 -29.40924715460234 2.887605693291267 20.0
10.667929924223555 -30.08096033447368 3.7030875908916414 30.0
10.679864871762003 -30.103850818249704 4.460605108201671 18.0
10.703739928073277 -30.20537105096523 5.232318526346682 39.0
10.69180850959905 -30.2188764212261 6.010950308643053 31.0
0.1503267182096936 -0.5498848571063125 -0.2758935182286252 1.0
0.20166750351668356 -0.6670033479704874 -0.3369787424045376 3.0
0.22219748228392816 -0.720340963854458 -0.3470929185855973 4.0
0.23620928470207295 -0.7763322496780807 -0.35670995544623935 3.0
0.26297605852130335 -0.8444138731584819 -0.3785804916392031 3.0
0.29011312184150145 -0.9284468548924462 -0.38660907051966487 3.0
0.31457780847406186 -1.0029007269782464 -0.4001159143367952 4.0
1.6757959453691307 -4.870754679348844 -1.9800243093737562 10.0
1.7945586481986455 -5.223494377429527 -1.9827197116887885 18.0
1.9489793599912386 -5.654968837295524 -1.9981718257987102 15.0
2.1275678485092184 -6.18243128516522 -2.010469516408702 12.0
2.3241497630240655 -6.741354594072135 -2.017493256028032 32.0
2.5672669842363773 -7.446106408854196 -2.0411398166772714 20.0
2.8753061617753013 -8.352124651097263 -2.077209224401379 17.0
3.2753387402158545 -9.494440197416932 -2.1241380727251444 9.0
3.7399931375848143 -10.83719940113416 -2.145232630623021 6.0
4.435873320779685 -12.6540256987228 -2.1955060085311766 3.0
5.391559960106086 -15.382251799023766 -2.2828828129360916 4.0
6.817074073445943 -19.420083236154152 -2.4035329100036193 7.0
9.241097700369657 -26.319902953482877 -2.6007028636537948 8.0
10.72853278328695 -30.56093065921731 -2.2709594083343676 23.0
10.717167753876826 -30.566801946763018 -1.5189773246197849 27.0
10.706053030912619 -30.55852921204238 -0.761935896440565 23.0
10.699641875439044 -30.57495137311758 -0.010162415807809966 25.0
10.709607784647087 -30.62370960900623 0.7371092967326696 22.0
10.692923257257679 -30.604525349161456 1.493746237000058 28.0
10.652497547311674 -30.521580643623782 2.237539353548765 26.0
10.430965872279307 -29.923295208724507 2.9295245670827526 14.0
10.666952395808503 -30.617027929266072 3.7688848893399194 32.0
10.683053954695293 -30.69718988107819 4.537560474771185 29.0
10.68872396797636 -30.746185398992903 5.32064552425491 42.0
10.687263180648218 -30.757075354338497 6.101714801828778 44.0
-0.0033186893181127485 -0.11214789675457208 -0.0011490518119861995 0.0
0.19183435878998964 -0.6633620232018684 -0.33793055585190124 3.0
0.21734113648577166 -0.7264797712523623 -0.35322717735870923 4.0
0.23400165327007055 -0.7703584385158336 -0.35633394288429027 3.0
0.257847677742044 -0.8464972381731994 -0.37862883458633456 3.0
0.28462301397081574 -0.9255224967436796 -0.3901623752165875 3.0
0.30623238078717824 -0.9994179027488339 -0.39587332109271506 4.0
1.6433668735936298 -4.881546696582762 -1.976298819754365 9.0
1.7712585926124602 -5.238991675765034 -1.9843611053152321 19.0
1.9101495218081528 -5.666307680404927 -1.9958202626275738 11.0
2.0943163756267027 -6.188470956850785 -2.0134801288481317 12.0
2.282275200213848 -6.745568244446324 -2.0197759729431457 30.0
2.5206124937040126 -7.457154227058367 -2.0449123321244294 20.0
2.835955828990253 -8.371170832945506 -2.079084158696707 19.0
3.225766133589224 -9.523121590884127 -2.124320225507305 9.0
3.6844133275161632 -10.87651870283747 -2.1512392325768235 7.0
4.368772525000428 -12.689105575997866 -2.1918460020667183 4.0
5.304303045739188 -15.41313883604377 -2.290257284412934 4.0
6.7077217236124165 -19.472446933244942 -2.4080118719668997 7.0
9.098512633576924 -26.42194411080584 -2.6070531770160037 8.0
10.819156675672748 -31.415078456934246 -2.3342310069574985 25.0
10.810200313418648 -31.417297739680247 -1.5568998126873193 30.0
10.794324270982528 -31.40315654767952 -0.7851255603363101 25.0
10.793283915264174 -31.414609265165065 -0.009195801799806638 27.0
10.864430276358242 -31.66119442985208 0.7589291853270823 12.0
10.677418418798373 -31.161630049941806 1.5174714094411097 30.0
10.634481859399946 -31.053805297255717 2.278157299532086 27.0
10.426646823955211 -30.474816255448893 2.9855232709558566 7.0
10.651078865889813 -31.162217427969075 3.8282573576013004 25.0
10.51284323631219 -30.779574829891526 4.5470232032403235 9.0
-0.00038893628371670843 -0.1088631198489114 -0.0025798296951925507 18.0
10.633147726804236 -31.20580787737165 6.175776778691127 22.0
0.004038803479695278 -0.11352862957208783 -0.008911687856219007 0.0
0.19591133953270293 -0.6668401047804192 -0.33495108110569083 3.0
0.2153846074401111 -0.7330698667808871 -0.3499049140995705 4.0
0.2208577564545773 -0.7753930980467268 -0.3554728374171031 3.0
0.24651634583229462 -0.8464493231637541 -0.376103628359094 3.0
0.27818288776728956 -0.9177307917009734 -0.38600429518678125 3.0
0.30163332229433054 -1.0101716574758146 -0.4040816452413789 4.0
1.6222149775460735 -4.893647588148342 -1.9801790598149427 8.0
1.7448249949898083 -5.252050360838322 -1.9812506345026462 18.0
1.889130431934487 -5.685759904529468 -1.992771261382879 12.0
2.055412036295277 -6.201041745122242 -2.016672159757937 15.0
2.2451796369001977 -6.762914082037378 -2.02300335725437 31.0
2.4830360821531343 -7.487768851249591 -2.041559235868917 19.0
2.7828641596266595 -8.372642086420097 -2.0732997325997435 21.0
3.1752980400784323 -9.549436628532519 -2.1292013191774415 8.0
3.625995527945049 -10.92266989700048 -2.1549826583085365 6.0
4.291982936975817 -12.72012634205691 -2.19415136863038 3.0
5.216621862473073 -15.45022720121562 -2.2865364241897033 4.0
6.624500060364726 -19.597918403778998 -2.4149033257589934 7.0
8.965428291256519 -26.520746886725757 -2.619135688805475 8.0
10.813012485118833 -31.989905351648574 -2.36837548047376 26.0
10.802918234240046 -32.001261907944176 -1.579966419569205 23.0
10.794545637419242 -31.984639068302048 -0.7919236198544584 26.0
10.783223633827953 -31.99401759285034 -0.012898607084604916 28.0
10.85617504526411 -32.23231480633089 0.775563641031581 12.0
10.128095080122646 -30.126068719883726 1.4683342797821308 6.0
10.120645517133058 -30.111449779288645 2.204125760746335 6.0
10.121144144547527 -30.144319174290978 2.946642964057842 7.0
10.128269618719363 -30.202748097737672 3.698329038574711 7.0
10.144077602029387 -30.25351690376523 4.456922405888889 9.0
10.158317079237165 -30.33716083177233 5.23030589341892 9.0
-0.004273664194786871 -0.10667223743770629 -0.005505299082977782 30.0
0.0004977582557743297 -0.10542896360760923 -0.0027749402511007297 0.0
0.1854177357159006 -0.6782521244979812 -0.33912670300919273 3.0
0.2103742149542962 -0.7237396701298167 -0.3528398623293651 4.0
0.21969310896740013 -0.7760627967555628 -0.3587268537495228 3.0
0.24688001856412808 -0.8526022018329424 -0.3747046032775189 3.0
0.26843218413423875 -0.9207914926533776 -0.38835029850880787 3.0
0.2990566198603541 -1.009855685400324 -0.3981457499360631 4.0
1.591237187176597 -4.905039192238533 -1.9840698988349155 9.0
1.710227591054503 -5.27154023938096 -1.98917958238861 20.0
1.8560853093646774 -5.706579510186784 -1.998836792554946 12.0
2.0235726440501756 -6.2133053423687885 -2.0116817853362505 16.0
2.205675723474174 -6.784604158950309 -2.0244208791379235 30.0
2.440719114365867 -7.495894426033641 -2.050012845448249 20.0
2.738177825144439 -8.403009919460855 -2.0768936944123215 19.0
3.1209904588615003 -9.581078742687554 -2.122574338160058 9.0
3.5688128045705874 -10.949167377848728 -2.1587354364536258 7.0
4.224530400132084 -12.745632762189807 -2.196235508823902 3.0
5.137976306937572 -15.501321190865788 -2.289025145426497 4.0
6.507144557143209 -19.62114697161795 -2.4152785767424834 7.0
8.832928243637426 -26.626215336525014 -2.6185114689528555 8.0
10.805369462060458 -32.580913379984366 -2.4070503753335464 27.0
10.794279351251191 -32.578471443236026 -1.6062479196458457 24.0
10.786542262372357 -32.5813960477794 -0.8104214342001919 27.0
10.78216116640775 -32.59045185616381 -0.01802759915393689 22.0
10.796923852600878 -32.6719369040504 0.7853705724823643 19.0
9.951779568138823 -30.155975780198666 1.459549556873571 13.0
9.944216216479829 -30.152722935129983 2.1984113054778014 6.0
9.949418166343536 -30.210393572767533 2.943383084869492 7.0
9.94999562472252 -30.235228688057806 3.6974006805217274 15.0
9.946470010002468 -30.25155494022394 4.449430144445627 18.0
9.948994199431349 -30.297389801673113 5.209142576280942 19.0
9.949940327218993 -30.327490274353416 5.9827215206580515 31.0
0.0002994749464908233 -0.10694371798211083 0.00013023214762841132 0.0
0.18103444512709985 -0.6731255238264837 -0.34153545517569445 3.0
0.19961127221611444 -0.7296084265651416 -0.3539015761189034 4.0
0.21940075224273053 -0.776346987442108 -0.35670173954533635 3.0
0.24636725423065806 -0.8558364698913002 -0.3795199713454361 3.0
0.26273906608473724 -0.9240430259126141 -0.38614471123934907 3.0
0.2959048710497194 -1.005688706496273 -0.39715640116482837 4.0
1.5711380624661655 -4.924233057967366 -1.978636361958242 7.0
1.6845693348940474 -5.2727701637839015 -1.9802706504607137 19.0
1.8213743541286702 -5.71331080072751 -2.001213579582876 8.0
1.9860468647507166 -6.233547472895292 -2.017656551380915 9.0
2.1690223105683866 -6.800917918102832 -2.019187060660187 32.0
2.402361735954852 -7.516925148560989 -2.045757887907437 19.0
2.6843585467274873 -8.413733419298467 -2.073133154017987 18.0
3.0647695201467178 -9.58260222767517 -2.127436040948935 11.0
3.5144066536767364 -10.984034482073502 -2.164446272712006 7.0
4.151010477520311 -12.781054357503558 -2.2026767232502773 3.0
5.052999670116471 -15.54938140319674 -2.297655600782006 4.0
6.402364035668908 -19.682757669253476 -2.413682462291265 5.0
8.693853439147892 -26.701931781346836 -2.6247292896269947 8.0
10.802482178244126 -33.19654470792357 -2.444850859397331 28.0
10.793300618790463 -33.205451549372 -1.6337743901301314 25.0
10.778902405752286 -33.19855163249115 -0.8255238947401826 21.0
10.794927932022748 -33.26852248943886 -0.018820518874279796 15.0
10.67980690920936 -32.94592385113111 0.7849052224574318 26.0
10.660931540426729 -32.94055152233003 1.5925034709446964 34.0
10.570709915578325 -32.6673134028987 2.375516644936343 23.0
10.332066003957374 -31.989277462091813 3.11353598950166 25.0
-0.002257510029627452 -0.10460621603188261 -0.0010951520041316424 9.0
-0.0042845852523522255 -0.11136459002979719 -0.0014392752099501192 5.0
11.026501052325854 -34.22511963669244 5.878003880005717 14.0
10.873919709021628 -33.790089411125564 6.655693901443756 42.0
0.004954624410018714 -0.11078103875275133 -0.00823122312007332 0.0
0.1806988238055746 -0.6820326792948566 -0.3458275169774739 3.0
0.19773897599427687 -0.7299562790793775 -0.35058087401239324 4.0
0.21369466783050126 -0.7804638814729044 -0.36203464046814127 3.0
0.23422100603184365 -0.8551434591945823 -0.3763013256643511 3.0
0.25808987992882393 -0.9221845508667966 -0.3886066687530161 3.0
0.2895758616265008 -0.9977355228820323 -0.39366130476157635 4.0
1.5360340056231911 -4.932381663500299 -1.9812673016659872 7.0
1.6499008953958605 -5.29364604683585 -1.9822196990228296 20.0
1.7868837633248553 -5.727440756480546 -2.000468113983191 15.0
1.9510813546795385 -6.2522187939987015 -2.0198555552965467 16.0
2.137374117169073 -6.819730364215664 -2.02293981507369 39.0
2.361419738180534 -7.536436006376662 -2.050817172046723 18.0
2.6486595853725294 -8.442469339408488 -2.074817112106443 15.0
3.009820543415825 -9.611934161282731 -2.122649812366034 12.0
3.4472783269315688 -11.013813360425923 -2.157598603476675 7.0
4.090741633605954 -12.835031389244547 -2.2031515244406825 3.0
4.970386664541951 -15.599642847788362 -2.295792918671042 4.0
6.321831539090936 -19.812098093979724 -2.426620591647018 6.0
8.548952316906641 -26.8049561849703 -2.6241740944879925 8.0
10.786148387612153 -33.827752508791285 -2.4871672010961032 29.0
10.788127112404972 -33.839689596400085 -1.6691943972256376 27.0
10.764893818017237 -33.81897194295957 -0.8358916019104546 22.0
10.797614444096599 -33.9628112040816 -0.012774773342317507 8.0
10.661215782592699 -33.54723765222037 0.8023524602710039 27.0
10.651993801936483 -33.57780563840162 1.6197364733192072 26.0
10.482578908522138 -33.0794429886098 2.409505039402717 24.0
10.312416589579241 -32.56530357766132 3.1610338944900582 18.0
0.0013638873533972206 -0.10965251138286067 -0.003473683334330173 9.0
-0.004525321414700367 -0.11042979857492724 -0.0031330970779347087 5.0
0.002207085363864181 -0.10287748439999025 -0.009275937847826467 18.0
10.852632357176581 -34.39455072511139 6.759999106239808 43.0
-0.002724779479651196 -0.10535506309954144 -0.003949673923364126 0.0
0.1767764878461591 -0.6860467268428505 -0.34308885062107913 3.0
0.20064877003163642 -0.7369412806830512 -0.35933168677541444 4.0
0.209092753021073 -0.7787772445591999 -0.3631926488962402 3.0
0.23570049186320677 -0.8452134939091698 -0.37473070571110306 3.0
0.25638218439124044 -0.9310373787978218 -0.3897224138966175 3.0
0.285186320679371 -1.0048040964674672 -0.39927900220425977 4.0
1.512914130683079 -4.9407195838098765 -1.9799029065381855 6.0
1.6207348390039513 -5.309115452907027 -1.9896446494649522 20.0
1.7559631127418387 -5.745925924742655 -2.0006288968864534 12.0
1.9116796926250426 -6.243860583235126 -2.0093358443955176 18.0
2.097046376532342 -6.832019197337318 -2.028974298739298 35.0
2.317325125571292 -7.555596357080801 -2.0471576550267256 20.0
2.592235079064198 -8.445787722493115 -2.076319149873088 18.0
2.953263986292316 -9.624885893345555 -2.1274235343419163 6.0
3.391120109089535 -11.047382081962015 -2.1650805549132754 7.0
4.016031530290245 -12.870930158960395 -2.2020272640850784 3.0
4.881096932219285 -15.649855633224245 -2.2953755224255374 4.0
6.225241257884875 -19.91273941633586 -2.4363169197996943 6.0
8.427794338267903 -26.95675712570287 -2.6354400568896206 8.0
10.776539260476548 -34.503802044532506 -2.5355836556495643 23.0
10.770796479963918 -34.50800216830694 -1.6932730059308423 28.0
10.760443023917304 -34.488783641705545 -0.8518401125640264 24.0
10.812381002542605 -34.69942786186966 -0.01506846341835286 8.0
10.643887510059796 -34.20194989893436 0.8136227628509686 7.0
10.499877044404675 -33.77763881720274 1.6276449018847532 26.0
10.435371768550823 -33.60424337531098 2.4391136546179255 25.0
10.357153483959472 -33.399961643131334 3.2386959169389544 9.0
11.207397588625248 -36.15079253267016 4.403322177634853 12.0
0.00011355941882566604 -0.10267035351546895 -0.0004132575630303422 5.0
10.957101377400575 -35.44937018024838 6.067441966942213 15.0
10.83494889249631 -35.07190711521428 6.8827649838160365 45.0
0.004504906606580619 -0.11100684421947642 -0.006947635582604285 0.0
0.1807132779495358 -0.6805746155932587 -0.3390241883645576 3.0
0.19473242710614977 -0.7303528495487017 -0.3569857715757223 4.0
0.20924847499290214 -0.7776860100517813 -0.36100167287022267 3.0
0.23207298205746874 -0.850710862814512 -0.37013799810364806 3.0
0.2543772820107705 -0.9321222802441408 -0.38425740825711896 3.0
0.27182636555953477 -1.0022909909239204 -0.3944833207590324 4.0
1.487773146066345 -4.949178342370289 -1.9849797028599425 6.0
1.59386762164284 -5.319159511271086 -1.9883423263030622 19.0
1.7308456356749902 -5.748051552476897 -2.0009525654891505 10.0
1.8794837907598558 -6.260117189368607 -2.01029241048227 15.0
2.0576146311358534 -6.851670096639909 -2.029204779414579 30.0
2.2771527372687643 -7.57277604299441 -2.0530101177581797 19.0
2.544745477709243 -8.470386177987915 -2.077390855217208 16.0
2.90106117644746 -9.642292188022157 -2.128569766463742 5.0
3.3362719361897786 -11.090505021591095 -2.169562508588476 7.0
3.9549949978788717 -12.906133248972857 -2.207834184629841 3.0
4.806596978318268 -15.678773143016477 -2.304124173132151 4.0
6.127828403647554 -19.989997633238563 -2.4429203184941692 6.0
8.29220624758135 -27.061694555709472 -2.6472663833253436 9.0
10.790681977572438 -35.19482883148261 -2.5801729928082566 24.0
10.81966991996613 -35.34940757668155 -1.7293978461949073 9.0
10.815641808182582 -35.375801811516546 -0.8699832601257453 8.0
-0.0031992140420417847 -0.10548442847924865 -0.00026058450875912544 4.0
9.99468064777885 -32.74223812054976 0.774856424561596 6.0
10.649689581526003 -34.92379380168651 1.680901452892487 28.0
10.42406471238383 -34.22245847397193 2.4838947763174333 26.0
10.233452720087545 -33.652558745697526 3.262977604931602 9.0
10.967916195300493 -36.085762118373275 4.384459514971368 12.0
10.963768091718034 -36.096019270317655 5.275673783935792 15.0
10.927871611762612 -36.018745414454415 6.151913829295419 15.0
10.833818022362834 -35.77065318297126 7.004904118128587 47.0
0.00019426768498925252 -0.10466759141005494 -0.005679729023616594 0.0
0.17534429730038775 -0.6733401697251038 -0.3399145743066052 3.0
0.18625668379937527 -0.7274638403549418 -0.35512939515139 4.0
0.208453189987496 -0.7779978296063974 -0.36043029726635567 3.0
0.21962674232262597 -0.8479039281136337 -0.36629156183337774 3.0
0.24493048837796944 -0.9270470900841983 -0.38933246597635107 3.0
0.27150523295572704 -1.0056375311577626 -0.39802636304073497 4.0
1.4603694422703881 -4.966559365437661 -1.9847638340873681 7.0
1.562723085139427 -5.332514918079818 -1.9900729364762855 20.0
1.6979318658811366 -5.762092754035833 -1.9992324671375306 14.0
1.8399712395815238 -6.263296146955573 -2.017018395476191 15.0
2.0254183304850852 -6.865988926953479 -2.030039823605249 35.0
2.235288347277234 -7.592362539210941 -2.05100410453313 19.0
2.503980500868505 -8.485274532404615 -2.0824319832716154 15.0
2.8439840038367272 -9.665635585418972 -2.1265370601659366 11.0
3.283148372646948 -11.121384670422817 -2.1738738194111393 7.0
3.8877551443160216 -12.962617225988296 -2.2098830496880524 3.0
4.720676967108511 -15.730905779901631 -2.3054806172662317 4.0
6.022320441347299 -20.05685203975648 -2.4441719699842244 6.0
8.158685054428023 -27.166450595339093 -2.6536590191164757 9.0
10.39178226040292 -34.644739266763445 -2.540960262563984 23.0
10.396707243000233 -34.6566733073195 -1.6966419730830817 56.0
10.412356545277975 -34.753415047784635 -0.8570155627822363 8.0
0.001999430042320949 -0.10308445562818602 -0.0035902721483074525 4.0
0.0035235865426874935 -0.10181219198936285 -0.008289132243714572 10.0
10.639225122161411 -35.64328097092803 1.7187542678605143 30.0
10.375444199154618 -34.783614472925485 2.517203425463872 9.0
10.722400701374253 -36.004020931567844 3.4774508174360963 47.0
10.7392123973665 -36.08717906495483 4.3799487464176226 48.0
10.737154000266862 -36.12529861009974 5.2653637804312385 60.0
10.735227987928296 -36.15911134503493 6.168312037320208 64.0
10.746999086587739 -36.220462435503585 7.085991352091627 65.0
0.0036356098584414244 -0.10951613048384602 -0.00889108309765797 0.0
0.1743393988273349 -0.6749011213543259 -0.34186609662531114 3.0
0.18492756426558749 -0.7369896801187927 -0.35065817309698943 4.0
0.1991210103687534 -0.7837562888706776 -0.36070154513826513 3.0
0.22637766818490754 -0.8545310296376076 -0.37698328359370803 3.0
0.24456465000702352 -0.929029136343747 -0.38280860009148865 3.0
0.2647913640280418 -1.0014723138035322 -0.39067026577581465 4.0
1.4289574519532953 -4.974455184764947 -1.9859638897601768 2.0
1.5406411738141148 -5.34133667059733 -1.9879864884934277 20.0
1.6652277767575847 -5.783740636564008 -1.9997792263198808 12.0
1.805610768643952 -6.268926379107779 -2.010908789827924 17.0
1.982447475597796 -6.88611332815242 -2.027195938772928 35.0
2.199741819513245 -7.612066447465941 -2.0572926187392913 18.0
2.455783772774707 -8.514148482200467 -2.0868655880406055 16.0
2.7912953351274057 -9.682433195648725 -2.1273959472171873 12.0
3.220655112662362 -11.149236932763596 -2.1705441845944042 7.0
3.810939336991869 -13.003881387931958 -2.219829365143064 3.0
4.630559760668944 -15.758087295318106 -2.3017188574847 4.0
5.912390640155327 -20.125350264687746 -2.4496875321795133 8.0
8.011418638088713 -27.28399064765648 -2.6569814506703486 9.0
9.349019768293127 -31.820382733019844 -2.3286547188070834 6.0
0.003002724823605334 -0.1088091851932212 -0.002279244492351562 6.0
-0.0010141725276239643 -0.10306288973342013 -0.0067308593711208915 4.0
-0.002341182482102622 -0.10480757158607408 -0.006150591233124519 4.0
9.905713044489959 -33.86575047242928 0.8018077412872786 6.0
10.553276638615824 -36.138509525512866 1.7395906885609678 10.0
10.371907848933944 -35.53480715822049 2.56515504207451 28.0
10.622496648796766 -36.418794521886966 3.513158644815776 36.0
10.639483018310289 -36.545935026746825 4.42902707005051 37.0
10.63132321384921 -36.54864973962002 5.321236255138516 30.0
10.629310846133452 -36.562553238126455 6.224371098883977 49.0
10.595281359725883 -36.51214072344949 7.1317379648344605 33.0
0.003537110342668854 -0.10918726077131166 -0.007396317760749614 0.0
0.1633337637259773 -0.6794243638274382 -0.3335860699903388 3.0
0.18467367248643343 -0.7372051057405619 -0.3554069272276014 4.0
0.19225199400182838 -0.7876808437510521 -0.3571410021008953 3.0
0.21953023628302448 -0.8509625464218354 -0.37543484033334024 3.0
0.2377377502765845 -0.9266489606403152 -0.38871105117279187 3.0
0.2578157790613841 -0.9997272407146687 -0.39332581712306885 5.0
1.4027101471480063 -4.980906839186772 -1.9831954513190801 3.0
1.507325395998968 -5.35070242267126 -1.9976059189776738 20.0
1.634960999148207 -5.789587545230403 -2.006969415430499 13.0
1.7755731719745422 -6.2900876579940554 -2.0178710056120273 18.0
1.9480147067715305 -6.889554881188132 -2.027682411875291 31.0
2.1535287088512227 -7.635325724893596 -2.055219941391762 19.0
2.4018093577418327 -8.528685318830545 -2.0840002749058244 19.0
2.73950811417235 -9.69434114240486 -2.125214157908093 11.0
3.156147742558776 -11.182539355628245 -2.178904020275622 7.0
3.753070617904745 -13.05484561952811 -2.2240706380691213 3.0
4.543203342019144 -15.801560106806804 -2.3050070554898205 4.0
5.810584035301527 -20.21510203574514 -2.450266587967527 6.0
7.875716062250648 -27.398846266188347 -2.6580948159241435 9.0
9.143340932456582 -31.80744749733028 -2.3180734768415294 6.0
9.146239124323584 -31.858199554298306 -1.5590553662208066 7.0
10.437350240565157 -36.37886212095267 -0.8871845800327806 36.0
10.453704541782663 -36.469891737091146 -0.017907880983640864 19.0
9.840517798106683 -34.377758277925906 0.810603263145258 14.0
10.306588941287123 -36.05982680231176 1.7272589149579252 50.0
10.348330096307388 -36.21648065311999 2.6091903226117727 30.0
10.607748815829902 -37.17467876804376 3.5778982676287927 37.0
10.636988398116445 -37.32861846978216 4.5128612977043545 39.0
10.616922024202353 -37.291048954367724 5.422944313154791 48.0
10.616629375243091 -37.323294427752636 6.345676186522398 51.0
10.592888628798667 -37.28429336297018 7.265846670285936 34.0
-0.0022788247219486736 -0.10885994497079306 -0.004649933012839229 0.0
0.16375418566679242 -0.6780199677282756 -0.3335517678649603 2.0
0.18095185671375943 -0.7343697800140075 -0.34964480930175384 4.0
0.1897800680655759 -0.7795630766763298 -0.36276975012030216 3.0
0.20716220877602906 -0.8485276982056789 -0.3741976518921303 3.0
0.2322951354988692 -0.9281969290580522 -0.39138911968135043 3.0
0.25116904106820603 -1.0042885988227372 -0.3928062668920325 8.0
1.3768186166918046 -4.989714385634013 -1.9865505813437079 3.0
