# .PCD v0.7 - Point Cloud Data file format
VERSION 0.7
FIELDS x y z intensity
SIZE 4 4 4 4
TYPE F F F F
COUNT 1 1 1 1
WIDTH 759
HEIGHT 1
VIEWPOINT 0 0 0 1 0 0 0
POINTS 759
DATA ascii
-0.5159358978271484 0.185172900557518 -0.3535996675491333 16.0
-0.5239160656929016 0.1932511329650879 -0.3384261429309845 7.0
-2.9628207683563232 2.5628249645233154 -1.7354878187179565 8.0
-3.1569674015045166 2.753448486328125 -1.7291481494903564 12.0
-3.384430408477783 2.97674560546875 -1.7281718254089355 24.0
-3.635653495788574 3.222221612930298 -1.7234890460968018 9.0
-3.9316790103912354 3.5127992630004883 -1.7214354276657104 14.0
-4.24697732925415 3.822537899017334 -1.7090295553207397 30.0
-4.632302284240723 4.199394702911377 -1.7017074823379517 15.0
-5.089780330657959 4.648559093475342 -1.6924220323562622 13.0
-5.641160011291504 5.18996000289917 -1.682691216468811 11.0
-6.2927565574646 5.829958438873291 -1.6637202501296997 22.0
-7.251806259155273 6.704749584197998 -1.6637780666351318 12.0
-8.051824569702148 7.484394073486328 -1.5801595449447632 15.0
-9.113368034362793 8.515488624572754 -1.485270380973816 20.0
-8.050214767456055 7.490435600280762 -1.0508618354797363 50.0
-8.188752174377441 7.630037307739258 -0.8024280667304993 34.0
-9.366856575012207 8.776001930236816 -0.6119987964630127 4.0
-9.392838478088379 8.807267189025879 -0.3072255253791809 4.0
-9.704833030700684 9.116541862487793 -0.0028577796183526516 0.0
-9.633184432983398 9.049833297729492 0.30901890993118286 1.0
-15.205143928527832 14.476707458496094 0.9925949573516846 5.0
-15.193710327148438 14.475387573242188 1.4861379861831665 18.0
0.000540511158760637 -0.3161054253578186 -0.013617522083222866 22.0
-15.208174705505371 14.503907203674316 2.4868221282958984 8.0
-15.193065643310547 14.498988151550293 2.986039638519287 2.0
-15.146950721740723 14.463800430297852 3.480727195739746 3.0
0.000540511158760637 -0.3161054253578186 -0.013617522083222866 38.0
-0.395272433757782 0.07210452854633331 -0.3416617810726166 2.0
-0.40176111459732056 0.07871796190738678 -0.3295905888080597 2.0
-0.4497101902961731 0.1258642077445984 -0.34830397367477417 4.0
-0.48693153262138367 0.1626875102519989 -0.3558623492717743 6.0
-0.5052133798599243 0.18096104264259338 -0.3484579026699066 17.0
-0.515760600566864 0.19147203862667084 -0.33516183495521545 8.0
-0.5247275233268738 0.2006170153617859 -0.3205835819244385 5.0
-3.1400368213653564 2.773773670196533 -1.7298449277877808 10.0
-3.3600621223449707 2.9912362098693848 -1.7254127264022827 19.0
-3.611903190612793 3.2414045333862305 -1.722180724143982 9.0
-3.902099609375 3.5296928882598877 -1.718431830406189 11.0
-4.2121262550354 3.8364646434783936 -1.7045984268188477 30.0
-4.604060173034668 4.225770950317383 -1.701167106628418 14.0
-5.0611138343811035 4.678122043609619 -1.6923850774765015 13.0
-5.606581687927246 5.219945430755615 -1.6818231344223022 11.0
-6.253070831298828 5.862287521362305 -1.6625713109970093 16.0
-7.201568603515625 6.7397003173828125 -1.6617937088012695 10.0
-8.00818920135498 7.532357692718506 -1.5803855657577515 15.0
-9.062231063842773 8.571133613586426 -1.4854437112808228 11.0
-8.081937789916992 7.615115642547607 -1.0609407424926758 41.0
0.0005404992843978107 -0.315769761800766 -0.01360357366502285 19.0
-9.264281272888184 8.784163475036621 -0.6088266968727112 2.0
-9.294329643249512 8.819722175598145 -0.30577772855758667 4.0
-9.674592018127441 9.196440696716309 -0.0027729712892323732 0.0
-15.087623596191406 14.528159141540527 0.4947167932987213 12.0
0.0005404992843978107 -0.315769761800766 -0.01360357366502285 25.0
0.0005404992843978107 -0.315769761800766 -0.01360357366502285 34.0
0.0005404992843978107 -0.315769761800766 -0.01360357366502285 41.0
0.0005404992843978107 -0.315769761800766 -0.01360357366502285 100.0
0.0005404992843978107 -0.315769761800766 -0.01360357366502285 59.0
0.0005404992843978107 -0.315769761800766 -0.01360357366502285 27.0
-15.004164695739746 14.50428581237793 3.9773759841918945 68.0
-0.3954789340496063 0.07712855190038681 -0.3436839282512665 2.0
-0.4019620716571808 0.08381443470716476 -0.33153170347213745 2.0
-0.4484156668186188 0.13003051280975342 -0.3492254316806793 4.0
-0.4867081642150879 0.16834092140197754 -0.3576381504535675 10.0
-0.49721500277519226 0.1790960729122162 -0.34502503275871277 16.0
-0.5036711096763611 0.1858365833759308 -0.32946154475212097 6.0
-0.5099655389785767 0.19225332140922546 -0.3136429488658905 8.0
-3.1103134155273438 2.7803080081939697 -1.723283052444458 14.0
-3.341722249984741 3.0127739906311035 -1.7260656356811523 24.0
-3.594053268432617 3.2651593685150146 -1.723427653312683 9.0
-3.8758413791656494 3.548389196395874 -1.7166178226470947 15.0
-4.1833391189575195 3.8576459884643555 -1.7029155492782593 30.0
-4.573729038238525 4.248443126678467 -1.699617624282837 14.0
-5.027270793914795 4.704273223876953 -1.690968632698059 13.0
-5.570877552032471 5.250682353973389 -1.6809543371200562 13.0
-6.209361553192139 5.892662525177002 -1.6606847047805786 16.0
-7.144001483917236 6.764725685119629 -1.6578750610351562 13.0
-7.955863952636719 7.574488639831543 -1.5792268514633179 13.0
-9.016549110412598 8.629115104675293 -1.4863098859786987 7.0
0.0005401951493695378 -0.31544172763824463 -0.013589978218078613 10.0
-9.273070335388184 8.89576244354248 -0.9170699119567871 2.0
-9.130939483642578 8.757431030273438 -0.6035518050193787 2.0
-9.196191787719727 8.828323364257812 -0.3042876422405243 4.0
0.0005401951493695378 -0.31544172763824463 -0.013589978218078613 4.0
-14.915431022644043 14.529112815856934 0.49186962842941284 10.0
-14.882488250732422 14.506145477294922 0.9828126430511475 50.0
-14.857187271118164 14.490765571594238 1.470078468322754 44.0
-14.83798885345459 14.481440544128418 1.9584180116653442 47.0
-14.873497009277344 14.521492004394531 2.4603261947631836 23.0
-14.910834312438965 14.568593978881836 2.964653730392456 41.0
0.0005401951493695378 -0.31544172763824463 -0.013589978218078613 27.0
-14.911584854125977 14.58385181427002 3.9755983352661133 58.0
-0.3943597972393036 0.08102256804704666 -0.3446871042251587 2.0
-0.3946632444858551 0.08158640563488007 -0.3276028633117676 2.0
-0.44452032446861267 0.13176287710666656 -0.3482722043991089 4.0
-0.47626277804374695 0.1639522910118103 -0.35224634408950806 12.0
-0.493085652589798 0.18100674450397491 -0.3441546857357025 16.0
-0.49948903918266296 0.18777011334896088 -0.3286333680152893 6.0
-0.5056449174880981 0.1942981630563736 -0.3128572702407837 9.0
-3.099011182785034 2.8051111698150635 -1.7268853187561035 12.0
-3.317211866378784 3.026961326599121 -1.7233065366744995 22.0
-3.5667078495025635 3.2793996334075928 -1.720204472541809 9.0
-3.8521907329559326 3.5696256160736084 -1.7159923315048218 15.0
-4.1565399169921875 3.8792731761932373 -1.7017831802368164 30.0
-4.537844657897949 4.265419960021973 -1.6960484981536865 15.0
-4.998288154602051 4.7334723472595215 -1.6909323930740356 13.0
-5.534209728240967 5.276474952697754 -1.6792597770690918 13.0
-6.167692184448242 5.92059326171875 -1.658800482749939 16.0
-7.094905853271484 6.800330638885498 -1.6562145948410034 14.0
-7.908903121948242 7.619112014770508 -1.5789003372192383 14.0
-8.964727401733398 8.684198379516602 -1.486484169960022 8.0
-9.10147476196289 8.827520370483398 -1.2067111730575562 3.0
-9.0706787109375 8.79944896697998 -0.9023958444595337 2.0
-9.023406982421875 8.757963180541992 -0.6000156998634338 3.0
-9.098264694213867 8.836098670959473 -0.30279821157455444 3.0
0.0005401832750067115 -0.315106064081192 -0.013576029799878597 4.0
-14.822853088378906 14.613445281982422 0.4918096363544464 7.0
-14.810946464538574 14.606122970581055 0.9838408827781677 44.0
-14.820829391479492 14.625997543334961 1.4750980138778687 48.0
-14.835029602050781 14.645003318786621 1.9691767692565918 45.0
-14.871671676635742 14.691898345947266 2.4744410514831543 23.0
-14.91124153137207 14.741790771484375 2.9820902347564697 43.0
-14.918421745300293 14.753766059875488 3.4878156185150146 53.0
-14.92087173461914 14.766221046447754 4.001339435577393 57.0
-0.3873104751110077 0.07865137606859207 -0.34059634804725647 2.0
-0.3948926627635956 0.0865999087691307 -0.3295440375804901 2.0
-0.4457387626171112 0.13835211098194122 -0.3510688543319702 4.0
-0.47107380628585815 0.16438771784305573 -0.3504387140274048 15.0
-0.4865044355392456 0.18021413683891296 -0.34157636761665344 16.0
-0.49539312720298767 0.18958468735218048 -0.32780545949935913 6.0
-0.4976186454296112 0.19218036532402039 -0.30976396799087524 12.0
-3.0802419185638428 2.8213698863983154 -1.7261323928833008 12.0
-3.301140785217285 3.048449754714966 -1.7246437072753906 24.0
-3.5452616214752197 3.2982423305511475 -1.7195367813110352 7.0
-3.8277711868286133 3.5886802673339844 -1.7147737741470337 15.0
-4.130369663238525 3.8999996185302734 -1.7006525993347168 29.0
-4.512202739715576 4.291025161743164 -1.6960152387619019 15.0
-4.95640754699707 4.747731685638428 -1.6863019466400146 12.0
-5.49743127822876 5.302034378051758 -1.6775652170181274 16.0
-6.1190361976623535 5.941215515136719 -1.6550734043121338 16.0
-7.046752452850342 6.8317461013793945 -1.6542342901229858 14.0
-7.867260932922363 7.666308879852295 -1.5794063806533813 14.0
-8.912940979003906 8.733040809631348 -1.4862016439437866 8.0
-9.048885345458984 8.877120971679688 -1.2064743041992188 7.0
-8.984650611877441 8.814741134643555 -0.898895800113678 2.0
-8.926366806030273 8.761541366577148 -0.5969420671463013 3.0
-9.00776481628418 8.847179412841797 -0.30149099230766296 7.0
-9.068659782409668 8.915231704711914 -0.003108948701992631 3.0
-9.427207946777344 9.28650951385498 0.3097290098667145 3.0
-14.80854606628418 14.771645545959473 0.9894161224365234 44.0
-14.81817626953125 14.791476249694824 1.4833606481552124 51.0
-14.836281776428223 14.81467056274414 1.9806846380233765 49.0
-14.876592636108398 14.865853309631348 2.4894886016845703 24.0
-14.908651351928711 14.908658981323242 2.998685121536255 43.0
-14.920981407165527 14.926026344299316 3.508420944213867 56.0
-14.922967910766602 14.938146591186523 4.02484655380249 60.0
-0.3849715292453766 0.0812818855047226 -0.34058067202568054 2.0
-0.39372289180755615 0.09052830189466476 -0.3305063843727112 2.0
-0.438115656375885 0.13626441359519958 -0.3473028540611267 5.0
-0.4657314121723175 0.16495482623577118 -0.34863054752349854 18.0
-0.47591128945350647 0.17573973536491394 -0.3364347517490387 15.0
-0.4847518503665924 0.18499025702476501 -0.3229171633720398 6.0
-0.48945966362953186 0.1901644617319107 -0.3066703677177429 12.0
-3.067528009414673 2.8471505641937256 -1.7297334671020508 6.0
-3.2811362743377686 3.0683250427246094 -1.724614143371582 24.0
-3.519179105758667 3.3160910606384277 -1.7175894975662231 8.0
-3.8012101650238037 3.609586238861084 -1.7135529518127441 14.0
-4.103960037231445 3.9233944416046143 -1.7000696659088135 29.0
-4.479959011077881 4.314671039581299 -1.6944648027420044 16.0
-4.923584938049316 4.774600982666016 -1.6853457689285278 14.0
-5.460309982299805 5.333038330078125 -1.676696538925171 14.0
-6.07252311706543 5.970334529876709 -1.652817726135254 16.0
-6.986324310302734 6.855401039123535 -1.6499933004379272 14.0
-7.829448699951172 7.723125457763672 -1.5812932252883911 15.0
-8.85910701751709 8.786110877990723 -1.4861465692520142 7.0
-8.951139450073242 8.88674545288086 -1.2007092237472534 14.0
-8.885809898376465 8.822465896606445 -0.8944278359413147 2.0
-8.830582618713379 8.77171516418457 -0.5941404104232788 3.0
-8.911234855651855 8.860776901245117 -0.3001347482204437 7.0
-8.977505683898926 8.931925773620605 -0.0030949129723012447 4.0
-9.321333885192871 9.292397499084473 0.3081046938896179 3.0
-14.798163414001465 14.94677734375 0.995093047618866 44.0
-14.815750122070312 14.9697265625 1.4923338890075684 51.0
-14.826703071594238 14.99117660522461 1.9920138120651245 47.0
-14.877514839172363 15.053826332092285 2.505479574203491 35.0
-14.908930778503418 15.091123580932617 3.017244577407837 48.0
-14.914007186889648 15.106588363647461 3.529034376144409 55.0
-14.92099380493164 15.124046325683594 4.049849033355713 59.0
-0.38030070066452026 0.08135128766298294 -0.3385274112224579 2.0
-0.3962244391441345 0.09815797209739685 -0.3344036936759949 2.0
-0.43796485662460327 0.14166459441184998 -0.34916192293167114 6.0
-0.459246963262558 0.16409897804260254 -0.3459267318248749 18.0
-0.4718293845653534 0.17750701308250427 -0.33556458353996277 15.0
-0.48186928033828735 0.18811197578907013 -0.32290104031562805 6.0
-0.4903825521469116 0.19730746746063232 -0.3089624345302582 13.0
-0.5103439688682556 0.21845588088035583 -0.30101490020751953 7.0
-3.2551043033599854 3.0807101726531982 -1.7211735248565674 20.0
-3.4956002235412598 3.3338897228240967 -1.7162829637527466 14.0
-3.777238130569458 3.6303670406341553 -1.7129281759262085 15.0
-4.076836585998535 3.9445199966430664 -1.698938250541687 30.0
-4.449221611022949 4.336533069610596 -1.6929165124893188 15.0
-4.892858982086182 4.801793575286865 -1.684851050376892 13.0
-5.420945167541504 5.357653617858887 -1.6745874881744385 13.0
-6.029447555541992 5.9984331130981445 -1.6509335041046143 16.0
-6.921646595001221 6.871678829193115 -1.6444642543792725 13.0
-7.780290126800537 7.765557289123535 -1.5806915760040283 14.0
-8.810689926147461 8.841607093811035 -1.486784815788269 7.0
-8.852449417114258 8.891112327575684 -1.1945784091949463 6.0
-8.777732849121094 8.81629467010498 -0.8888591527938843 2.0
-8.742119789123535 8.785298347473145 -0.591707706451416 3.0
-8.829164505004883 8.881994247436523 -0.2991410493850708 6.0
0.0005393785540945828 -0.31410670280456543 -0.013534653931856155 4.0
-9.207717895507812 9.285653114318848 0.30614137649536133 3.0
-14.804023742675781 15.130152702331543 1.0016177892684937 46.0
-14.814430236816406 15.145878791809082 1.5013043880462646 51.0
-14.825058937072754 15.167257308959961 2.003899574279785 47.0
-14.878008842468262 15.232873916625977 2.520763874053955 35.0
-14.908924102783203 15.270073890686035 3.0355210304260254 45.0
-14.91219711303711 15.28384780883789 3.5499680042266846 55.0
-14.918685913085938 15.300997734069824 4.073730945587158 63.0
-0.3815792202949524 0.08761021494865417 -0.341568261384964 2.0
-0.38903602957725525 0.09571253508329391 -0.3304750621318817 2.0
-0.43655237555503845 0.1457958072423935 -0.35008367896080017 6.0
-0.4527915418148041 0.1631830930709839 -0.34322312474250793 18.0
-0.4627654552459717 0.17399466037750244 -0.3312777876853943 14.0
-0.4713331460952759 0.18333818018436432 -0.3180135190486908 6.0
-0.47599416971206665 0.1884078085422516 -0.3020223379135132 11.0
-0.5008589029312134 0.2149571031332016 -0.29736924171447754 8.0
-3.2349143028259277 3.1002957820892334 -1.7211450338363647 20.0
-3.477149724960327 3.357048273086548 -1.7175312042236328 11.0
-3.75315523147583 3.651005983352661 -1.7123035192489624 15.0
-4.0554704666137695 3.9731557369232178 -1.7005552053451538 30.0
-4.422374248504639 4.362412929534912 -1.6928832530975342 14.0
-4.857079029083252 4.825410842895508 -1.6829768419265747 13.0
-5.383173942565918 5.385785102844238 -1.6733062267303467 6.0
-5.983800411224365 6.025850296020508 -1.6486806869506836 17.0
-6.8665452003479 6.897462844848633 -1.6411936283111572 13.0
-7.736315727233887 7.816224098205566 -1.5814722776412964 13.0
-8.755084991455078 8.889657020568848 -1.486271619796753 8.0
-8.751269340515137 8.891758918762207 -1.1880805492401123 1.0
-8.690422058105469 8.833837509155273 -0.8854960799217224 3.0
-8.659302711486816 8.803959846496582 -0.589641809463501 3.0
-8.743021011352539 8.898218154907227 -0.29801374673843384 6.0
0.0005393666797317564 -0.3137710392475128 -0.01352070551365614 4.0
-9.109626770019531 9.293893814086914 0.3047060966491699 3.0
-14.800018310546875 15.30540943145752 1.0075743198394775 46.0
-14.810213088989258 15.326560974121094 1.5104188919067383 49.0
-14.821884155273438 15.349300384521484 2.016162633895874 47.0
-14.883757591247559 15.419635772705078 2.537217140197754 40.0
-14.907317161560059 15.455020904541016 3.0543601512908936 43.0
-14.907438278198242 15.465641975402832 3.57123064994812 57.0
-14.920235633850098 15.484142303466797 4.099099159240723 61.0
-0.3803722560405731 0.09145501255989075 -0.3425716161727905 2.0
-0.387797087430954 0.09961537271738052 -0.33143794536590576 2.0
-0.4289805591106415 0.1435648649930954 -0.346317857503891 6.0
-0.44505971670150757 0.16097667813301086 -0.33962392807006836 18.0
-0.4537617564201355 0.17039288580417633 -0.32699114084243774 13.0
-0.4647125005722046 0.1823817938566208 -0.3155617117881775 6.0
-0.4666941165924072 0.18482200801372528 -0.2981598675251007 11.0
-0.5016309022903442 0.22224877774715424 -0.299530953168869 8.0
-3.216494560241699 3.120576858520508 -1.7217994928359985 24.0
-3.4572577476501465 3.3787307739257812 -1.7181408405303955 11.0
-3.7250497341156006 3.667311191558838 -1.7098965644836426 14.0
-4.022842884063721 3.9883501529693604 -1.6972254514694214 30.0
-4.387449741363525 4.379656791687012 -1.6898208856582642 16.0
-4.819436073303223 4.845099925994873 -1.6801847219467163 13.0
-5.345927715301514 5.41037130355835 -1.6716134548187256 6.0
-5.938920974731445 6.049443244934082 -1.6460610628128052 16.0
-6.81282377243042 6.926915168762207 -1.6385678052902222 13.0
-7.693447113037109 7.865304946899414 -1.5822550058364868 15.0
-8.704411506652832 8.946113586425781 -1.4869093894958496 8.0
-8.603774070739746 8.845158576965332 -1.1755049228668213 2.0
-8.648527145385742 8.895709991455078 -0.8865473866462708 2.0
-8.577705383300781 8.826376914978027 -0.5877584218978882 3.0
-8.655619621276855 8.912298202514648 -0.2968425452709198 7.0
0.0005390625447034836 -0.31344300508499146 -0.013507110066711903 4.0
-9.012807846069336 9.305802345275879 0.3033672869205475 3.0
-14.797216415405273 15.48403549194336 1.013719916343689 44.0
-14.805773735046387 15.503694534301758 1.5193895101547241 49.0
-14.822599411010742 15.526678085327148 2.0284204483032227 50.0
-14.881068229675293 15.599738121032715 2.5525012016296387 40.0
-14.906826972961426 15.637901306152344 3.0731968879699707 43.0
-14.910663604736328 15.647039413452148 3.5934648513793945 57.0
-14.917486190795898 15.664970397949219 4.123724937438965 63.0
-0.3781075179576874 0.09390494227409363 -0.342556357383728 2.0
-0.38311049342155457 0.09955801069736481 -0.32946592569351196 2.0
-0.42401835322380066 0.14369943737983704 -0.34442734718322754 6.0
-0.4411880075931549 0.1624825894832611 -0.3387121856212616 18.0
-0.45096954703330994 0.17333465814590454 -0.32697534561157227 13.0
-0.45936545729637146 0.18270431458950043 -0.3139219880104065 6.0
-0.46265071630477905 0.18640363216400146 -0.2973747253417969 11.0
-0.49220573902130127 0.21863001585006714 -0.29588520526885986 6.0
-3.194119691848755 3.1366217136383057 -1.7204067707061768 17.0
-3.4282212257385254 3.390568494796753 -1.714280128479004 12.0
-3.699479103088379 3.6862220764160156 -1.7086787223815918 15.0
-4.005844593048096 4.020249366760254 -1.7004926204681396 30.0
-4.361672878265381 4.406594753265381 -1.6902931928634644 14.0
-4.781733989715576 4.864527225494385 -1.6773930788040161 14.0
-5.301262855529785 5.430819988250732 -1.6682621240615845 5.0
-5.898405075073242 6.08201789855957 -1.6452832221984863 7.0
-6.768258571624756 6.960851669311523 -1.637557864189148 14.0
-7.648922920227051 7.912712574005127 -1.582761526107788 15.0
-8.655275344848633 8.99782657623291 -1.4873201847076416 8.0
-8.552497863769531 8.893404960632324 -1.1754553318023682 1.0
-8.485391616821289 8.827256202697754 -0.8753289580345154 4.0
-8.514300346374512 8.86130142211914 -0.5868852734565735 3.0
-8.561553001403809 8.918360710144043 -0.2954477071762085 6.0
0.000538574589882046 -0.31310734152793884 -0.013493040576577187 4.0
-8.903227806091309 9.296183586120605 0.3014470338821411 2.0
-14.798280715942383 15.669014930725098 1.0202447175979614 57.0
-14.805205345153809 15.687155723571777 1.528924822807312 49.0
-14.817557334899902 15.711177825927734 2.0408706665039062 52.0
-14.89162540435791 15.796371459960938 2.5703582763671875 45.0
-14.908757209777832 15.825650215148926 3.0928733348846436 45.0
-14.91070556640625 15.838526725769043 3.616682291030884 56.0
-14.913150787353516 15.846272468566895 4.148349761962891 60.0
-0.37335827946662903 0.09394077956676483 -0.340503454208374 2.0
-0.38891837000846863 0.1111501082777977 -0.3362981081008911 3.0
-0.42249760031700134 0.14784178137779236 -0.34534916281700134 8.0
-0.4286878705024719 0.15488995611667633 -0.33152908086776733 15.0
-0.4419653117656708 0.16967172920703888 -0.3226886987686157 12.0
-0.4527982473373413 0.181635320186615 -0.31147024035453796 6.0
-0.4571863114833832 0.18674854934215546 -0.29582035541534424 11.0
-0.49030280113220215 0.22324468195438385 -0.2965954840183258 4.0
-3.1742098331451416 3.1552929878234863 -1.72037935256958 17.0
-3.4087536334991455 3.413970708847046 -1.7155287265777588 10.0
-3.670539617538452 3.702800989151001 -1.7062716484069824 16.0
-3.9782373905181885 4.040744781494141 -1.6993621587753296 30.0
-4.325770378112793 4.424152374267578 -1.6872305870056152 14.0
-4.747908592224121 4.887996673583984 -1.6759806871414185 13.0
-5.258873462677002 5.451474666595459 -1.6653259992599487 7.0
-5.852214813232422 6.106049537658691 -1.6426634788513184 12.0
-6.703609943389893 6.977971076965332 -1.6323519945144653 13.0
-7.605453014373779 7.961334705352783 -1.583545207977295 15.0
-8.611980438232422 9.062525749206543 -1.4893405437469482 8.0
-8.548904418945312 9.00007438659668 -1.1824007034301758 1.0
0.0005385626573115587 -0.31277167797088623 -0.013479091227054596 39.0
0.0005385626573115587 -0.31277167797088623 -0.013479091227054596 48.0
-8.472850799560547 8.93248176574707 -0.294276624917984 6.0
0.0005385626573115587 -0.31277167797088623 -0.013479091227054596 4.0
-8.750185012817383 9.244484901428223 0.298087477684021 2.0
0.0005385626573115587 -0.31277167797088623 -0.013479091227054596 150.0
-14.807056427001953 15.875536918640137 1.5388829708099365 47.0
-14.819050788879395 15.899471282958984 2.054067611694336 47.0
-14.890871047973633 15.988910675048828 2.587048292160034 45.0
-14.906346321105957 16.011028289794922 3.111989974975586 45.0
-14.91052532196045 16.026504516601562 3.63957142829895 59.0
-14.909666061401367 16.03645133972168 4.174464702606201 62.0
-0.3744841516017914 0.1002473309636116 -0.3435438573360443 2.0
-0.3853003680706024 0.11242500692605972 -0.3353045880794525 3.0
-0.41746506094932556 0.14798130095005035 -0.343458890914917 11.0
-0.4235866963863373 0.15503832697868347 -0.32972151041030884 15.0
-0.43310803174972534 0.16584628820419312 -0.3184022307395935 12.0
-0.44012540578842163 0.17373858392238617 -0.3049587607383728 6.0
-0.4530642032623291 0.18834243714809418 -0.2950352430343628 12.0
-0.48720911145210266 0.22639651596546173 -0.2965794503688812 4.0
-3.152932643890381 3.1724510192871094 -1.7196696996688843 19.0
-3.3834309577941895 3.4296627044677734 -1.7135841846466064 9.0
-3.644801616668701 3.7213692665100098 -1.7050541639328003 16.0
-3.951820135116577 4.062488555908203 -1.698781967163086 30.0
-4.297130107879639 4.4478840827941895 -1.686693549156189 14.0
-4.711366653442383 4.908360958099365 -1.6736491918563843 12.0
-5.224288463592529 5.480546474456787 -1.6648757457733154 9.0
-5.805948734283447 6.129757404327393 -1.6400442123413086 14.0
-6.65222692489624 7.006565093994141 -1.630051612854004 13.0
-7.557682514190674 8.005335807800293 -1.5834989547729492 14.0
-8.565865516662598 9.121122360229492 -1.49067223072052 6.0
-9.840147972106934 10.53164005279541 -1.367405891418457 7.0
-8.346041679382324 8.888110160827637 -0.8717828392982483 7.0
-8.35411548614502 8.903167724609375 -0.5832151770591736 14.0
-8.385904312133789 8.944408416748047 -0.29310816526412964 8.0
-8.442927360534668 9.010313034057617 -0.00303862732835114 4.0
-8.567533493041992 9.154221534729004 0.29357054829597473 3.0
0.0005382585804909468 -0.31244364380836487 -0.013465496711432934 148.0
-14.803213119506836 16.060035705566406 1.5484179258346558 47.0
-14.812193870544434 16.080915451049805 2.0663273334503174 44.0
-14.89256477355957 16.180891036987305 2.6039700508117676 46.0
-14.910259246826172 16.205726623535156 3.132786273956299 47.0
-14.908675193786621 16.215015411376953 3.662459373474121 43.0
-14.900758743286133 16.217273712158203 4.198718070983887 23.0
-0.36980313062667847 0.10017114877700806 -0.34149107336997986 2.0
-0.37935328483581543 0.11107389628887177 -0.3323546350002289 3.0
-0.4112688899040222 0.14677150547504425 -0.34063079953193665 15.0
-0.42088961601257324 0.1578003317117691 -0.32970619201660156 14.0
-0.4315553605556488 0.17001411318778992 -0.3192407190799713 12.0
-0.43601566553115845 0.17531569302082062 -0.30413106083869934 6.0
-0.4452485740184784 0.18578177690505981 -0.2919420897960663 12.0
-0.4791291058063507 0.22397135198116302 -0.293660044670105 3.0
-3.1271982192993164 3.1858270168304443 -1.7169121503829956 25.0
-3.3593077659606934 3.446592092514038 -1.7122788429260254 11.0
-3.6240649223327637 3.7454755306243896 -1.706213355064392 14.0
-3.9206786155700684 4.080451011657715 -1.6965521574020386 30.0
-4.265788555145264 4.46855354309082 -1.6851471662521362 14.0
-4.6829071044921875 4.939465045928955 -1.674533724784851 13.0
-5.183323383331299 5.50447416305542 -1.6627681255340576 9.0
-5.755863189697266 6.1512131690979 -1.6366872787475586 14.0
-6.608654499053955 7.043619632720947 -1.6296871900558472 14.0
-7.518791198730469 8.062154769897461 -1.5856655836105347 13.0
-8.50609302520752 9.164719581604004 -1.4897010326385498 8.0
0.0005382467061281204 -0.31210798025131226 -0.013451547361910343 5.0
-8.26600170135498 8.909586906433105 -0.8691127300262451 7.0
0.0005382467061281204 -0.31210798025131226 -0.013451547361910343 6.0
-8.297772407531738 8.95416259765625 -0.29189521074295044 9.0
-8.355447769165039 9.024826049804688 -0.003027300350368023 6.0
-8.612853050231934 9.31550407409668 0.29722678661346436 3.0
-14.779403686523438 16.21923828125 1.0391567945480347 84.0
-14.784213066101074 16.235702514648438 1.556826114654541 10.0
-14.811453819274902 16.27729034423828 2.080089569091797 49.0
-14.88460636138916 16.364524841308594 2.6194872856140137 43.0
-14.877870559692383 16.36814308166504 3.146865129470825 47.0
-15.087362289428711 16.614336013793945 3.7313003540039062 7.0
0.0005382467061281204 -0.31210798025131226 -0.013451547361910343 30.0
-0.37192270159721375 0.10783955454826355 -0.3455507457256317 2.0
-0.38031068444252014 0.11756707727909088 -0.3352738618850708 3.0
-0.4050244688987732 0.145575150847435 -0.3378027081489563 17.0
-0.4169098734855652 0.15928681194782257 -0.32879459857940674 13.0
-0.4238932728767395 0.16748946905136108 -0.3158082962036133 12.0
-0.4307802617549896 0.17541322112083435 -0.302491694688797 6.0
-0.44228842854499817 0.18874767422676086 -0.29192641377449036 12.0
-0.4734728932380676 0.22435113787651062 -0.29219210147857666 3.0
-3.109501361846924 3.2069244384765625 -1.7182505130767822 28.0
-3.338210105895996 3.4682130813598633 -1.7128889560699463 11.0
-3.5923521518707275 3.7586519718170166 -1.7026188373565674 15.0
-3.8915092945098877 4.098965644836426 -1.6948732137680054 26.0
-4.234796524047852 4.49121618270874 -1.6841049194335938 14.0
-4.641009330749512 4.95353889465332 -1.6703650951385498 11.0
-5.145867824554443 5.53015661239624 -1.6614903211593628 9.0
-5.7185540199279785 6.184594631195068 -1.636649250984192 14.0
-6.543934345245361 7.059421539306641 -1.6244831085205078 13.0
-7.479649543762207 8.116024017333984 -1.587557077407837 7.0
-8.44840145111084 9.21387004852295 -1.4894200563430786 8.0
-9.724581718444824 10.660039901733398 -1.368951439857483 7.0
-8.196881294250488 8.939446449279785 -0.8674106597900391 8.0
-8.214006423950195 8.964990615844727 -0.5809203386306763 2.0
0.0005379425710998476 -0.3117799460887909 -0.013437952846288681 100.0
-8.286957740783691 9.056652069091797 -0.002996972529217601 8.0
-8.646944999694824 9.470147132873535 0.3005966544151306 3.0
0.0005379425710998476 -0.3117799460887909 -0.013437952846288681 18.0
0.0005379425710998476 -0.3117799460887909 -0.013437952846288681 9.0
-14.810517311096191 16.470149993896484 2.0936615467071533 46.0
-14.885222434997559 16.566112518310547 2.6373469829559326 37.0
-14.873211860656738 16.557872772216797 3.16654109954834 42.0
-15.073091506958008 16.796039581298828 3.7522335052490234 27.0
-18.71526527404785 20.943967819213867 5.347075939178467 7.0
-0.36609673500061035 0.10642630606889725 -0.34247931838035583 2.0
-0.3732331097126007 0.11484310030937195 -0.3313453495502472 3.0
-0.40238627791404724 0.14823240041732788 -0.33778730034828186 18.0
-0.40712305903434753 0.1539451628923416 -0.32340362668037415 13.0
-0.4200207591056824 0.16882149875164032 -0.3149387836456299 12.0
-0.4303763210773468 0.18097548186779022 -0.30409982800483704 6.0
-0.44183090329170227 0.1944032907485962 -0.293449342250824 12.0
-0.47047293186187744 0.22732314467430115 -0.29217639565467834 3.0
-3.085484743118286 3.2208645343780518 -1.7161762714385986 21.0
-3.315812587738037 3.485697031021118 -1.7122236490249634 10.0
-3.5720860958099365 3.7818591594696045 -1.7037791013717651 13.0
-3.860996961593628 4.115843772888184 -1.6926443576812744 28.0
-4.201558589935303 4.507829666137695 -1.6815500259399414 18.0
-4.609340190887451 4.979044437408447 -1.669872760772705 13.0
-5.106745719909668 5.551762580871582 -1.6593852043151855 9.0
-5.675740718841553 6.209348201751709 -1.6347696781158447 16.0
-6.492269515991211 7.086934566497803 -1.6221840381622314 13.0
-7.433610916137695 8.162273406982422 -1.5880658626556396 12.0
-8.390790939331055 9.259712219238281 -1.4889107942581177 8.0
-9.669114112854004 10.725190162658691 -1.3700019121170044 8.0
-8.136896133422852 8.979331016540527 -0.8666735887527466 7.0
0.0005379306967370212 -0.31144431233406067 -0.01342400349676609 153.0
-8.208924293518066 9.070867538452148 -0.29242512583732605 9.0
0.0005379306967370212 -0.31144431233406067 -0.01342400349676609 4.0
-8.61808967590332 9.551735877990723 0.3016560971736908 3.0
0.0005379306967370212 -0.31144431233406067 -0.01342400349676609 9.0
0.0005379306967370212 -0.31144431233406067 -0.01342400349676609 9.0
-14.804269790649414 16.653465270996094 2.1062934398651123 46.0
-14.89123821258545 16.76457977294922 2.6554346084594727 42.0
-14.868165016174316 16.749589920043945 3.1864964962005615 43.0
-15.087470054626465 17.006759643554688 3.780007839202881 24.0
0.0005379306967370212 -0.31144431233406067 -0.01342400349676609 30.0
-0.36263179779052734 0.10749883949756622 -0.34144532680511475 2.0
-0.37427690625190735 0.12120967358350754 -0.33426472544670105 4.0
-0.3963433802127838 0.14680683612823486 -0.33495935797691345 19.0
-0.3998366892337799 0.1511443853378296 -0.31980451941490173 13.0
-0.4136991500854492 0.16746564209461212 -0.31236085295677185 10.0
-0.4275355339050293 0.1837778240442276 -0.3040843605995178 6.0
-0.43537840247154236 0.19300836324691772 -0.2911258935928345 12.0
-0.4649274945259094 0.2275390475988388 -0.29070883989334106 3.0
-3.060185432434082 3.233217716217041 -1.713420033454895 25.0
-3.2877063751220703 3.4978904724121094 -1.7090030908584595 12.0
-3.5422253608703613 3.795470714569092 -1.7007797956466675 15.0
-3.829167366027832 4.131056308746338 -1.6898666620254517 26.0
-4.176270484924316 4.535214900970459 -1.6825286149978638 14.0
-4.573722839355469 4.999939441680908 -1.6680017709732056 13.0
-5.066770076751709 5.576358795166016 -1.6576930284500122 9.0
-5.629267692565918 6.2343034744262695 -1.6325197219848633 15.0
-6.437923908233643 7.108498573303223 -1.618919014930725 13.0
-7.396374702453613 8.218748092651367 -1.5905115604400635 15.0
-8.339818000793457 9.309764862060547 -1.4893244504928589 8.0
-9.220046997070312 10.332290649414062 -1.315269112586975 1.0
0.0005376265617087483 -0.3111162483692169 -0.013410408981144428 140.0
-8.178853034973145 9.139813423156738 -0.5857675075531006 4.0
-8.186147689819336 9.154621124267578 -0.29345157742500305 6.0
0.0005376265617087483 -0.3111162483692169 -0.013410408981144428 4.0
-8.579864501953125 9.619714736938477 0.302328884601593 3.0
-14.345335960388184 16.303770065307617 1.0287574529647827 5.0
-14.32143497467041 16.28726577758789 1.5381293296813965 20.0
-14.311936378479004 16.287433624267578 2.0499448776245117 47.0
-14.891189575195312 16.964750289916992 2.6732916831970215 42.0
-14.871742248535156 16.953811645507812 3.2086925506591797 43.0
-15.07581901550293 17.202505111694336 3.803225517272949 32.0
0.0005376265617087483 -0.3111162483692169 -0.013410408981144428 30.0
-0.36350393295288086 0.11390266567468643 -0.34448593854904175 2.0
-0.36830273270606995 0.11978109180927277 -0.3313148617744446 4.0
-0.3878757953643799 0.1427706778049469 -0.33025678992271423 20.0
-0.3936008810997009 0.1497630923986435 -0.3171015977859497 13.0
-0.4108544588088989 0.17024490237236023 -0.31234538555145264 10.0
-0.42221799492836 0.1838645339012146 -0.30244478583335876 6.0
-0.4335809350013733 0.19731572270393372 -0.2918797731399536 12.0
-0.455674409866333 0.22353710234165192 -0.2870635688304901 3.0
-3.039112091064453 3.251645803451538 -1.713393211364746 25.0
-3.2650575637817383 3.5176644325256348 -1.7089753150939941 9.0
-3.5165672302246094 3.8152925968170166 -1.7001570463180542 14.0
-3.795269727706909 4.145246982574463 -1.6865386962890625 30.0
-4.141177654266357 4.552873134613037 -1.6799728870391846 15.0
-4.53835391998291 5.0228681564331055 -1.6665904521942139 13.0
-5.029221057891846 5.6036696434021 -1.6568294763565063 9.0
-5.582701683044434 6.258934020996094 -1.6302701234817505 14.0
-6.386084079742432 7.137915134429932 -1.6169421672821045 15.0
-7.344351768493652 8.261311531066895 -1.5901896953582764 15.0
-8.283884048461914 9.360930442810059 -1.4895050525665283 8.0
-9.110114097595215 10.332684516906738 -1.3085881471633911 3.0
0.000537614687345922 -0.3107806146144867 -0.013396459631621838 150.0
-8.16807746887207 9.241660118103027 -0.5889207720756531 4.0
-8.175301551818848 9.256572723388672 -0.2949684262275696 6.0
0.000537614687345922 -0.3107806146144867 -0.013396459631621838 4.0
-8.555832862854004 9.711854934692383 0.30367839336395264 3.0
0.000537614687345922 -0.3107806146144867 -0.013396459631621838 9.0
0.000537614687345922 -0.3107806146144867 -0.013396459631621838 9.0
0.000537614687345922 -0.3107806146144867 -0.013396459631621838 20.0
-14.896581649780273 17.180160522460938 2.6930220127105713 40.0
-14.863994598388672 17.1536865234375 3.2294905185699463 45.0
-15.063658714294434 17.40022087097168 3.826768636703491 8.0
-15.06602668762207 17.40869140625 4.389166355133057 13.0
-0.355491578578949 0.10976573824882507 -0.3393767476081848 2.0
-0.36469167470932007 0.12091101706027985 -0.330320805311203 4.0
-0.3806936740875244 0.13994327187538147 -0.32649150490760803 21.0
-0.3920991122722626 0.1537284255027771 -0.3179818391799927 13.0
-0.41158154606819153 0.1770864725112915 -0.314892053604126 10.0
-0.41945111751556396 0.18655505776405334 -0.3024291694164276 6.0
-0.4318404197692871 0.2015564739704132 -0.2926332354545593 12.0
-0.45379337668418884 0.2279156595468521 -0.28777366876602173 4.0
-3.0179669857025146 3.2674636840820312 -1.7126851081848145 25.0
-3.241743803024292 3.535296678543091 -1.708309531211853 12.0
-3.489065408706665 3.831434488296509 -1.698346734046936 15.0
-3.775289535522461 4.172593116760254 -1.6887089014053345 29.0
-4.108123302459717 4.571061134338379 -1.6779228448867798 16.0
-4.50349235534668 5.042515754699707 -1.6647210121154785 12.0
-4.991085052490234 5.626012802124023 -1.655139684677124 9.0
-5.542140483856201 6.285833835601807 -1.62912917137146 14.0
-6.332880973815918 7.162862777709961 -1.6143220663070679 21.0
-7.284849166870117 8.288933753967285 -1.5876574516296387 15.0
-8.235756874084473 9.417906761169434 -1.4908400774002075 8.0
-9.021660804748535 10.353398323059082 -1.3046711683273315 2.0
0.0005371259758248925 -0.3104449212551117 -0.013382628560066223 150.0
-8.163228988647461 9.348398208618164 -0.5924416184425354 4.0
-8.170384407043457 9.36340618133545 -0.2966667115688324 6.0
0.0005371259758248925 -0.3104449212551117 -0.013382628560066223 4.0
-8.570174217224121 9.846875190734863 0.3064206540584564 3.0
-14.972983360290527 17.446983337402344 1.0895168781280518 3.0
-14.95605754852295 17.432632446289062 1.629064679145813 2.0
0.0005371259758248925 -0.3104449212551117 -0.013382628560066223 100.0
-14.90431022644043 17.39517593383789 2.712984323501587 43.0
-14.866937637329102 17.356477737426758 3.251682996749878 41.0
-17.954191207885742 21.039464950561523 4.59403657913208 6.0
-15.082541465759277 17.636934280395508 4.424205780029297 9.0
-0.3519628942012787 0.11082053929567337 -0.3383428454399109 2.0
-0.3666817545890808 0.1286892294883728 -0.33421847224235535 4.0
-0.38149651885032654 0.1465318351984024 -0.3292882740497589 27.0
-0.38942113518714905 0.1563153713941574 -0.3179664611816406 13.0
-0.41108766198158264 0.1825651377439499 -0.31658467650413513 9.0
-0.41766825318336487 0.19077323377132416 -0.303225576877594 5.0
-0.4277031719684601 0.20295871794223785 -0.29184824228286743 12.0
-0.4447188675403595 0.2236989289522171 -0.2841285467147827 4.0
-2.9978983402252197 3.287085771560669 -1.713341236114502 27.0
-3.214698553085327 3.5484089851379395 -1.70572829246521 12.0
-3.465162992477417 3.851794719696045 -1.6983188390731812 14.0
-3.7449424266815186 4.190817832946777 -1.68703031539917 28.0
-4.083664417266846 4.5994343757629395 -1.6794073581695557 14.0
-4.469172477722168 5.066484451293945 -1.6637696027755737 13.0
-4.949530601501465 5.6483354568481445 -1.6530340909957886 9.0
-5.4953789710998535 6.309860706329346 -1.6268805265426636 14.0
-6.279605865478516 7.187440395355225 -1.6117023229599 27.0
-7.231160640716553 8.329303741455078 -1.5870599746704102 15.0
-8.175775527954102 9.46094036102295 -1.4901022911071777 8.0
-8.917943954467773 10.355095863342285 -1.2985461950302124 2.0
0.0005371141014620662 -0.31010928750038147 -0.013368679210543633 98.0
-8.16254711151123 9.461519241333008 -0.5963284969329834 3.0
-8.173480033874512 9.481247901916504 -0.2986775040626526 6.0
0.0005371141014620662 -0.31010928750038147 -0.013368679210543633 4.0
-8.57043743133545 9.96703815460205 0.30868229269981384 2.0
-14.917780876159668 17.590042114257812 1.0931003093719482 3.0
0.0005371141014620662 -0.31010928750038147 -0.013368679210543633 9.0
-14.799604415893555 17.472349166870117 2.1648945808410645 40.0
-14.907516479492188 17.6077938079834 2.732478618621826 45.0
-14.86690616607666 17.571115493774414 3.275001049041748 38.0
-17.762842178344727 21.068567276000977 4.577503204345703 6.0
-15.078094482421875 17.84326171875 4.453665256500244 13.0
-0.35494691133499146 0.11986112594604492 -0.34342142939567566 2.0
-0.3596271574497223 0.125813290476799 -0.33029037714004517 4.0
-0.37428030371665955 0.14367255568504333 -0.3255232572555542 24.0
-0.3809548318386078 0.15205959975719452 -0.31347161531448364 11.0
-0.40479132533073425 0.1810726821422577 -0.314007043838501 9.0
-0.41361507773399353 0.1920926719903946 -0.30239835381507874 6.0
-0.41878050565719604 0.19869953393936157 -0.2879863679409027 11.0
-0.44638046622276306 0.23234249651432037 -0.287016361951828 7.0
-2.9759459495544434 3.303170680999756 -1.7126331329345703 27.0
-3.19484281539917 3.570122718811035 -1.7069789171218872 10.0
-3.4375064373016357 3.8675944805145264 -1.6965088844299316 14.0
-3.715304136276245 4.208191394805908 -1.6853526830673218 28.0
-4.051644802093506 4.618717193603516 -1.6778628826141357 14.0
-4.434436321258545 5.087954521179199 -1.6623597145080566 13.0
-4.912460803985596 5.6716790199279785 -1.651759147644043 9.0
-5.449601173400879 6.330148220062256 -1.624265432357788 14.0
-6.2262067794799805 7.214260101318359 -1.6094045639038086 16.0
-7.158566474914551 8.343666076660156 -1.5820375680923462 13.0
-8.11639404296875 9.508085250854492 -1.4898242950439453 8.0
-8.816455841064453 10.362086296081543 -1.292973279953003 2.0
0.0005371022270992398 -0.30977362394332886 -0.013354730792343616 19.0
-7.99377965927124 9.376068115234375 -0.5883229374885559 1.0
-8.175493240356445 9.599430084228516 -0.3006889522075653 5.0
0.0005371022270992398 -0.30977362394332886 -0.013354730792343616 4.0
-8.602119445800781 10.130690574645996 0.3122442662715912 2.0
0.0005371022270992398 -0.30977362394332886 -0.013354730792343616 9.0
0.0005371022270992398 -0.30977362394332886 -0.013354730792343616 9.0
-14.801265716552734 17.678064346313477 2.179962396621704 40.0
-14.902460098266602 17.8133602142334 2.750802993774414 49.0
-14.866754531860352 17.7822322845459 3.2980358600616455 28.0
-17.561725616455078 21.06867790222168 4.556399345397949 6.0
-15.09421157836914 18.07747459411621 4.48982048034668 14.0
-0.35363414883613586 0.12350314855575562 -0.3444250822067261 2.0
-0.35719114542007446 0.12814965844154358 -0.33027517795562744 4.0
-0.3706255853176117 0.14472629129886627 -0.3245704472064972 22.0
-0.37610945105552673 0.15174394845962524 -0.31166473031044006 11.0
-0.4008161425590515 0.18233197927474976 -0.313137412071228 9.0
-0.41302990913391113 0.1976403295993805 -0.3040063977241516 6.0
-0.4171026945114136 0.20279747247695923 -0.2887401878833771 11.0
-0.4444299042224884 0.23668019473552704 -0.28772690892219543 7.0
-2.9503514766693115 3.314756155014038 -1.709877610206604 28.0
-3.1676697731018066 3.582909107208252 -1.704398274421692 12.0
-3.4134016036987305 3.8876566886901855 -1.696481466293335 13.0
-3.686807632446289 4.226856708526611 -1.6842254400253296 28.0
-4.024423599243164 4.643803596496582 -1.6783381700515747 14.0
-4.399604797363281 5.109199523925781 -1.6609504222869873 13.0
-4.8707275390625 5.693459987640381 -1.6496546268463135 9.0
-5.412591457366943 6.365753650665283 -1.6249666213989258 13.0
-6.175350189208984 7.238555908203125 -1.6071094274520874 17.0
-7.0973358154296875 8.371282577514648 -1.5795058012008667 15.0
-8.062704086303711 9.555133819580078 -1.4900102615356445 8.0
-8.754207611083984 10.408411979675293 -1.292558193206787 1.0
-8.122316360473633 9.641606330871582 -0.900574266910553 2.0
-7.920618534088135 9.397668838500977 -0.586907684803009 2.0
0.000536798092070967 -0.3094455897808075 -0.01334113534539938 4.0
0.000536798092070967 -0.3094455897808075 -0.01334113534539938 4.0
-8.544937133789062 10.180450439453125 0.31233808398246765 1.0
0.000536798092070967 -0.3094455897808075 -0.01334113534539938 9.0
0.000536798092070967 -0.3094455897808075 -0.01334113534539938 9.0
-14.798507690429688 17.894147872924805 2.1955976486206055 42.0
-14.903046607971191 18.028709411621094 2.7705304622650146 47.0
-14.949555397033691 18.098478317260742 3.340113401412964 16.0
-15.085564613342285 18.27861976623535 3.9408087730407715 4.0
0.000536798092070967 -0.3094455897808075 -0.01334113534539938 30.0
-0.3488970994949341 0.12325665354728699 -0.3423721492290497 2.0
-0.35459065437316895 0.13059435784816742 -0.3302600085735321 4.0
-0.3668166995048523 0.14588110148906708 -0.3236175775527954 21.0
-0.3756139278411865 0.15708884596824646 -0.3134410083293915 11.0
-0.39789333939552307 0.18503183126449585 -0.3131221830844879 10.0
-0.4032225012779236 0.19180156290531158 -0.2991199195384979 5.0
-0.41174179315567017 0.2027183622121811 -0.2871863842010498 11.0
-0.4365091323852539 0.23383313417434692 -0.2848079204559326 7.0
-2.931797981262207 3.334949254989624 -1.7112174034118652 27.0
-3.1445279121398926 3.60196852684021 -1.704371690750122 11.0
-3.383662223815918 3.902209997177124 -1.6940776109695435 14.0
-3.660630464553833 4.248352527618408 -1.6841970682144165 29.0
-3.9925482273101807 4.66491174697876 -1.6772983074188232 14.0
-4.362243175506592 5.127193927764893 -1.658622145652771 12.0
-4.825067043304443 5.708004474639893 -1.6458947658538818 8.0
-5.369149684906006 6.391012668609619 -1.6234573125839233 5.0
-6.113090991973877 7.253901481628418 -1.6025549173355103 14.0
-7.03104829788208 8.392317771911621 -1.575868010520935 18.0
-8.01027774810791 9.610864639282227 -1.4911149740219116 8.0
-9.219501495361328 11.116071701049805 -1.3703750371932983 4.0
-7.980939865112305 9.584510803222656 -0.8912957906723022 2.0
-7.887960910797119 9.47594165802002 -0.5886907577514648 2.0
-7.91732120513916 9.519073486328125 -0.2955437898635864 2.0
0.0005367862177081406 -0.3091099262237549 -0.013327186927199364 4.0
0.0005367862177081406 -0.3091099262237549 -0.013327186927199364 10.0
0.0005367862177081406 -0.3091099262237549 -0.013327186927199364 9.0
0.0005367862177081406 -0.3091099262237549 -0.013327186927199364 9.0
-14.79816722869873 18.10980987548828 2.211418390274048 42.0
-14.89592170715332 18.244165420532227 2.7897932529449463 47.0
-15.050275802612305 18.442523956298828 3.3869524002075195 12.0
-15.069598197937012 18.47944450378418 3.9649994373321533 9.0
-15.067391395568848 18.489524841308594 4.547253131866455 10.0
-0.348551869392395 0.12828244268894196 -0.3443944752216339 2.0
-0.3455251455307007 0.12478360533714294 -0.32437586784362793 5.0
-0.36198854446411133 0.14555460214614868 -0.3217277228832245 19.0
-0.3751545548439026 0.16237400472164154 -0.3152175843715668 11.0
-0.39504286646842957 0.18765035271644592 -0.31310683488845825 9.0
-0.40033289790153503 0.1944568008184433 -0.2991041839122772 5.0
-0.41223791241645813 0.20975326001644135 -0.2894785702228546 11.0
-0.4310562312602997 0.23376214504241943 -0.2833404242992401 8.0
-2.909602403640747 3.350635290145874 -1.7105098962783813 27.0
-3.1184241771698 3.6158957481384277 -1.702430009841919 11.0
-3.3641128540039062 3.927945613861084 -1.6964271068572998 14.0
-3.6343324184417725 4.26969051361084 -1.6841692924499512 30.0
-3.960237503051758 4.683609962463379 -1.6757546663284302 14.0
-4.326033115386963 5.146461009979248 -1.656753659248352 14.0
-4.789127826690674 5.734494686126709 -1.6454482078552246 9.0
-5.317058086395264 6.405203342437744 -1.6193684339523315 7.0
-6.062049865722656 7.2800703048706055 -1.6005818843841553 13.0
-6.974646091461182 8.425260543823242 -1.5744438171386719 17.0
-7.957979202270508 9.663378715515137 -1.491991400718689 7.0
0.000536005652975291 -0.30878186225891113 -0.013313589617609978 92.0
-7.935026168823242 9.644683837890625 -0.8924915194511414 2.0
0.000536005652975291 -0.30878186225891113 -0.013313589617609978 48.0
-7.886741638183594 9.59769058227539 -0.29643845558166504 3.0
0.000536005652975291 -0.30878186225891113 -0.013313589617609978 4.0
0.000536005652975291 -0.30878186225891113 -0.013313589617609978 10.0
0.000536005652975291 -0.30878186225891113 -0.013313589617609978 9.0
-15.031484603881836 18.609861373901367 1.6972134113311768 6.0
-14.795838356018066 18.326068878173828 2.227238655090332 40.0
-14.89621353149414 18.465354919433594 2.81022310256958 48.0
-15.068765640258789 18.689043045043945 3.4158689975738525 13.0
-15.075112342834473 18.710081100463867 3.9953832626342773 4.0
-15.077202796936035 18.725759506225586 4.583408355712891 5.0
-0.3385663330554962 0.1211625412106514 -0.3372483253479004 2.0
-0.34842613339424133 0.1339491605758667 -0.32925161719322205 8.0
-0.3549922704696655 0.1424209624528885 -0.317962646484375 17.0
-0.36800965666770935 0.15924237668514252 -0.31161898374557495 11.0
-0.3944167494773865 0.19309338927268982 -0.31479984521865845 9.0
-0.3950813114643097 0.1942785680294037 -0.29746538400650024 5.0
-0.40696391463279724 0.20954754948616028 -0.2879249155521393 11.0
-0.4267747104167938 0.23509973287582397 -0.2825993299484253 11.0
-2.883202075958252 3.362250804901123 -1.7077549695968628 21.0
-3.0969505310058594 3.6356146335601807 -1.70304274559021 8.0
-3.3314132690429688 3.9370670318603516 -1.692241907119751 14.0
-3.603550910949707 4.286966323852539 -1.6824922561645508 30.0
-3.9302351474761963 4.705142021179199 -1.6752209663391113 14.0
-4.292396545410156 5.170828819274902 -1.6562635898590088 13.0
-4.7459564208984375 5.75389289855957 -1.6429306268692017 9.0
-5.269867897033691 6.427677631378174 -1.617121934890747 7.0
-6.0072455406188965 7.301241874694824 -1.597642421722412 15.0
-6.907985210418701 8.448166847229004 -1.571082353591919 17.0
-7.899194717407227 9.707810401916504 -1.4917174577713013 8.0
-9.131686210632324 11.278480529785156 -1.3769038915634155 11.0
-7.935088634490967 9.767175674438477 -0.8990600109100342 2.0
-7.961362361907959 9.803850173950195 -0.602411687374115 12.0
-7.893850326538086 9.725008010864258 -0.2987186014652252 2.0
-8.385699272155762 10.357461929321289 -0.0016246535815298557 0.0
-14.888078689575195 18.63364028930664 0.5668145418167114 5.0
-14.895209312438965 18.655750274658203 1.132075548171997 3.0
-14.872139930725098 18.639427185058594 1.6919201612472534 3.0
